ncols     146
nrows     40
xllcorner -124.21514
yllcorner  41.7490284483
cellsize  2.777931034483439e-04
nodata_value       -9999
1.5726751e+01   1.5891890e+01   1.5897730e+01   1.5918911e+01   1.6045082e+01   1.6165617e+01   1.6350329e+01   1.6457534e+01   1.6597156e+01   1.6769900e+01   1.6891317e+01   1.6987221e+01   1.7048518e+01   1.7118589e+01   1.7167949e+01   1.7146605e+01   1.7062484e+01   1.7010015e+01   1.6989872e+01   1.7030122e+01   1.7091300e+01   1.7135988e+01   1.7106491e+01   1.7080848e+01   1.7075633e+01   1.7028731e+01   1.6927782e+01   1.6909172e+01   1.6839356e+01   1.6810916e+01   1.6768875e+01   1.6683816e+01   1.6551355e+01   1.6412597e+01   1.6305332e+01   1.6163195e+01   1.6065592e+01   1.5987123e+01   1.5936491e+01   1.5865169e+01   1.5807396e+01   1.5774666e+01   1.5651738e+01   1.5451905e+01   1.5207946e+01   1.4904754e+01   1.4521591e+01   1.4096616e+01   1.3700390e+01   1.3355568e+01   1.3082310e+01   1.3028650e+01   1.3031466e+01   1.3012954e+01   1.2904193e+01   1.2615355e+01   1.1169248e+01   7.5003194e+00   4.1458478e+00   2.8557860e+00   3.1150004e+00   3.6611181e+00   4.3099187e+00   4.8476996e+00   5.2299768e+00   5.5350765e+00   5.6863373e+00   5.7107307e+00   5.6159081e+00   5.4713307e+00   5.2880481e+00   5.0476658e+00   4.7414872e+00   4.5196268e+00   4.3275544e+00   4.1673818e+00   4.0006486e+00   3.8555823e+00   3.7194821e+00   3.5835224e+00   3.4875953e+00   3.3883698e+00   3.3368404e+00   3.3169333e+00   3.3217804e+00   3.3254476e+00   3.3125811e+00   3.3090423e+00   3.3078364e+00   3.3066305e+00   3.3043750e+00   3.3041755e+00   3.3028845e+00   3.3015931e+00   3.3013239e+00   3.2990991e+00   3.2977188e+00   3.2964274e+00   3.2951360e+00   3.2948462e+00   3.2925531e+00   3.2912617e+00   3.2899703e+00   3.2869939e+00   3.2872409e+00   3.2860960e+00   3.2848046e+00   3.2835132e+00   3.2381029e+00   2.8442742e+00   3.1208193e+00   2.9997798e+00   2.9943186e+00   3.1188087e+00   3.2162246e+00   3.1932570e+00   3.0324541e+00   2.8179935e+00   2.5403998e+00   2.0575857e+00   2.2034333e+00   2.1023958e+00   2.1485962e+00   2.8675780e+00   3.2269847e+00   3.2602264e+00   3.2580833e+00   3.2576401e+00   3.2562608e+00   3.2548810e+00   3.2518734e+00   3.2519798e+00   3.2507415e+00   3.2493617e+00   3.2479819e+00   3.2518765e+00   3.2452223e+00   3.2438425e+00   3.2424627e+00   3.2417892e+00   3.2397645e+00   3.2383232e+00   3.2369434e+00   3.2355636e+00   3.2326088e+00   3.2439519e+00
1.5823749e+01   1.6306860e+01   1.6426841e+01   1.6497850e+01   1.6601295e+01   1.6622855e+01   1.6659210e+01   1.6693644e+01   1.6792273e+01   1.6822867e+01   1.6889384e+01   1.6952289e+01   1.7032110e+01   1.7077231e+01   1.7089347e+01   1.7048982e+01   1.6942598e+01   1.6851333e+01   1.6821384e+01   1.6786990e+01   1.6822210e+01   1.6884491e+01   1.6877063e+01   1.6860605e+01   1.6858633e+01   1.6822394e+01   1.6690126e+01   1.6666460e+01   1.6640867e+01   1.6633959e+01   1.6564609e+01   1.6476444e+01   1.6357263e+01   1.6272452e+01   1.6178433e+01   1.6045388e+01   1.5919596e+01   1.5825192e+01   1.5761074e+01   1.5715129e+01   1.5681536e+01   1.5690484e+01   1.5634596e+01   1.5446247e+01   1.5214653e+01   1.4908030e+01   1.4528065e+01   1.4190852e+01   1.3855969e+01   1.3596532e+01   1.3433054e+01   1.3344697e+01   1.3253973e+01   1.3149341e+01   1.3054742e+01   1.2887509e+01   1.2690831e+01   1.0821498e+01   6.7562266e+00   3.6286149e+00   2.9467953e+00   3.3223035e+00   3.8607640e+00   3.9718363e+00   4.2465094e+00   4.5231679e+00   4.7003057e+00   4.8372011e+00   4.8990265e+00   4.7681708e+00   4.6489872e+00   4.5148200e+00   4.3654164e+00   4.2499812e+00   4.0786711e+00   3.9148762e+00   3.7370536e+00   3.6132066e+00   3.4799883e+00   3.3760194e+00   3.3319635e+00   3.3146501e+00   3.3151815e+00   3.3139758e+00   3.3127701e+00   3.3085550e+00   3.3100969e+00   3.3091529e+00   3.3079471e+00   3.3067414e+00   3.3043619e+00   3.3042867e+00   3.3029959e+00   3.3017046e+00   3.2996499e+00   3.2990557e+00   3.2978308e+00   3.2965396e+00   3.2952483e+00   3.2939571e+00   3.2926658e+00   3.2913745e+00   3.2900833e+00   3.2897134e+00   3.2875809e+00   3.2862095e+00   3.2849182e+00   3.2835900e+00   3.0219815e+00   2.4982635e+00   2.6150810e+00   2.2122316e+00   2.1777087e+00   2.3797973e+00   2.5886946e+00   2.5710036e+00   2.2496831e+00   2.0832127e+00   2.1563967e+00   2.3755323e+00   2.4962378e+00   2.0795898e+00   2.4120108e+00   3.0653260e+00   3.2595483e+00   3.2603842e+00   3.2598126e+00   3.2577570e+00   3.2563778e+00   3.2549982e+00   3.2533162e+00   3.2522126e+00   3.2508592e+00   3.2494796e+00   3.2480999e+00   3.2532153e+00   3.2453406e+00   3.2439609e+00   3.2425813e+00   3.2383502e+00   3.2395739e+00   3.2384423e+00   3.2370824e+00   3.2398790e+00   3.3012708e+00   3.4932578e+00
1.5758355e+01   1.6415012e+01   1.6708494e+01   1.6882482e+01   1.6926779e+01   1.6952024e+01   1.6897777e+01   1.6847026e+01   1.6844229e+01   1.6892480e+01   1.6945982e+01   1.7015482e+01   1.7033767e+01   1.7027560e+01   1.7017267e+01   1.6984105e+01   1.6872179e+01   1.6746723e+01   1.6667406e+01   1.6598465e+01   1.6589036e+01   1.6600819e+01   1.6688276e+01   1.6628153e+01   1.6634326e+01   1.6624519e+01   1.6479624e+01   1.6438484e+01   1.6399762e+01   1.6416106e+01   1.6355269e+01   1.6280013e+01   1.6159664e+01   1.6075891e+01   1.6028214e+01   1.5937914e+01   1.5840956e+01   1.5708488e+01   1.5619724e+01   1.5554445e+01   1.5542486e+01   1.5499504e+01   1.5468049e+01   1.5330291e+01   1.5117079e+01   1.4833703e+01   1.4505290e+01   1.4207381e+01   1.3944135e+01   1.3749664e+01   1.3610020e+01   1.3469584e+01   1.3354564e+01   1.3242910e+01   1.3109693e+01   1.2978524e+01   1.2819632e+01   1.2450968e+01   9.5840572e+00   6.0092096e+00   4.5232079e+00   4.3335108e+00   4.2947235e+00   3.6754775e+00   3.6012374e+00   3.7228252e+00   3.8573474e+00   4.1493457e+00   4.2862335e+00   4.1518541e+00   4.0702332e+00   4.0773734e+00   4.0386399e+00   3.9102638e+00   3.7386700e+00   3.5750924e+00   3.4507951e+00   3.3744714e+00   3.3322149e+00   3.3193384e+00   3.3177025e+00   3.3154953e+00   3.3152914e+00   3.3140858e+00   3.3128802e+00   3.3099761e+00   3.3103213e+00   3.3092635e+00   3.3080579e+00   3.3068523e+00   3.3058178e+00   3.3043980e+00   3.3031073e+00   3.3018162e+00   3.3005823e+00   3.2992390e+00   3.2979429e+00   3.2966518e+00   3.2953607e+00   3.2969501e+00   3.2927785e+00   3.2914874e+00   3.2901963e+00   3.2881417e+00   3.2875477e+00   3.2863230e+00   3.2843345e+00   3.2388814e+00   2.6687876e+00   2.3246229e+00   2.1066269e+00   2.3673571e+00   2.5820512e+00   2.3357769e+00   2.2087944e+00   2.2042705e+00   2.3992747e+00   2.7346691e+00   2.9515618e+00   2.8781370e+00   2.4482288e+00   2.0413322e+00   2.6495681e+00   3.1637836e+00   3.2636047e+00   3.2760941e+00   3.2759345e+00   3.2596920e+00   3.2564950e+00   3.2551155e+00   3.2507701e+00   3.2520985e+00   3.2509770e+00   3.2495975e+00   3.2482180e+00   3.2465235e+00   3.2454590e+00   3.2440795e+00   3.2427000e+00   3.2383546e+00   3.2396830e+00   3.2393990e+00   3.2772344e+00   3.4483492e+00   3.7733349e+00   4.1073100e+00
1.5725196e+01   1.6424985e+01   1.6800645e+01   1.7023483e+01   1.7146036e+01   1.7153445e+01   1.7091406e+01   1.6991967e+01   1.6959427e+01   1.6952963e+01   1.6994490e+01   1.7015840e+01   1.6991389e+01   1.6976539e+01   1.6927685e+01   1.6884101e+01   1.6753865e+01   1.6655939e+01   1.6561552e+01   1.6442330e+01   1.6368736e+01   1.6374583e+01   1.6432510e+01   1.6459738e+01   1.6393020e+01   1.6336783e+01   1.6256664e+01   1.6216925e+01   1.6184878e+01   1.6176914e+01   1.6155838e+01   1.6084908e+01   1.6014922e+01   1.5887302e+01   1.5823718e+01   1.5783923e+01   1.5747128e+01   1.5649606e+01   1.5508447e+01   1.5394326e+01   1.5330316e+01   1.5256958e+01   1.5161433e+01   1.5066748e+01   1.4926147e+01   1.4662237e+01   1.4432919e+01   1.4189266e+01   1.3967960e+01   1.3779699e+01   1.3650315e+01   1.3529705e+01   1.3420405e+01   1.3303259e+01   1.3202760e+01   1.3090078e+01   1.2914131e+01   1.2776425e+01   1.1574340e+01   8.5143148e+00   7.1342160e+00   6.5521044e+00   5.9554446e+00   4.1757934e+00   3.5399569e+00   3.5363636e+00   3.5678610e+00   3.7160686e+00   3.6844827e+00   3.6047121e+00   3.6267447e+00   3.6904497e+00   3.7604800e+00   3.6491166e+00   3.4293083e+00   3.3486153e+00   3.3254990e+00   3.3215877e+00   3.3202228e+00   3.3190174e+00   3.3178120e+00   3.3176082e+00   3.3154012e+00   3.3141958e+00   3.3129904e+00   3.3148080e+00   3.3108425e+00   3.3093741e+00   3.3081687e+00   3.3069633e+00   3.3066967e+00   3.3045093e+00   3.3032188e+00   3.3019278e+00   3.3041336e+00   3.2757325e+00   3.2341194e+00   3.2432103e+00   3.3083918e+00   3.2905635e+00   3.2928912e+00   3.2916002e+00   3.2903093e+00   3.2897819e+00   3.2877938e+00   3.2847110e+00   3.2183579e+00   2.9034030e+00   2.3262004e+00   2.0914989e+00   2.4892812e+00   2.9900841e+00   3.1996095e+00   3.1041787e+00   3.0346418e+00   3.0197723e+00   3.1256158e+00   3.2170732e+00   3.0785394e+00   2.6309373e+00   2.0646837e+00   2.3901241e+00   2.9922746e+00   3.2592460e+00   3.3185089e+00   3.3881048e+00   3.4098673e+00   3.3257070e+00   3.2643114e+00   3.2553401e+00   3.2516511e+00   3.2522825e+00   3.2510947e+00   3.2497154e+00   3.2483360e+00   3.2506671e+00   3.2455773e+00   3.2442177e+00   3.2435283e+00   3.2496239e+00   3.2961092e+00   3.3975654e+00   3.6864470e+00   4.1488255e+00   4.6460839e+00   5.0947529e+00
1.5693656e+01   1.6395476e+01   1.6736128e+01   1.6895335e+01   1.7087283e+01   1.7280317e+01   1.7264475e+01   1.7175801e+01   1.7118034e+01   1.7060518e+01   1.7028047e+01   1.7057724e+01   1.6983073e+01   1.6880184e+01   1.6792904e+01   1.6737463e+01   1.6674313e+01   1.6559809e+01   1.6436848e+01   1.6304339e+01   1.6210821e+01   1.6170921e+01   1.6191241e+01   1.6216384e+01   1.6215846e+01   1.6117735e+01   1.6035204e+01   1.6009914e+01   1.5959219e+01   1.5969188e+01   1.5972535e+01   1.5931845e+01   1.5887217e+01   1.5775203e+01   1.5675507e+01   1.5600168e+01   1.5572723e+01   1.5531811e+01   1.5404032e+01   1.5260249e+01   1.5141923e+01   1.5005787e+01   1.4924702e+01   1.4798712e+01   1.4654283e+01   1.4483675e+01   1.4241457e+01   1.3954585e+01   1.3772384e+01   1.3651604e+01   1.3518746e+01   1.3482607e+01   1.3381864e+01   1.3266376e+01   1.3189807e+01   1.3132561e+01   1.2980468e+01   1.2832438e+01   1.2542053e+01   1.0303014e+01   8.4693174e+00   7.6370015e+00   6.8186249e+00   4.9904129e+00   3.6450003e+00   3.5479899e+00   3.5210451e+00   3.3977268e+00   3.3500061e+00   3.3459192e+00   3.3523038e+00   3.3917301e+00   3.4444631e+00   3.4148412e+00   3.3351397e+00   3.3239615e+00   3.3225846e+00   3.3215236e+00   3.3203320e+00   3.3191268e+00   3.3179215e+00   3.3147132e+00   3.3155110e+00   3.3143058e+00   3.3131005e+00   3.3176552e+00   3.3111910e+00   3.3094848e+00   3.3082795e+00   3.3071750e+00   3.3021233e+00   3.3062443e+00   3.3037661e+00   3.3003231e+00   3.2384762e+00   3.0660596e+00   3.0052539e+00   3.0197807e+00   3.2665846e+00   3.2920769e+00   3.2930039e+00   3.2917131e+00   3.2904223e+00   3.2897943e+00   3.2803121e+00   3.1611711e+00   2.7890159e+00   2.4488238e+00   2.2659567e+00   2.5827686e+00   3.0579373e+00   3.2625157e+00   3.2773725e+00   3.2756963e+00   3.2734148e+00   3.2712103e+00   3.2663805e+00   3.1124439e+00   2.6164458e+00   2.0561085e+00   2.3258089e+00   2.9169082e+00   3.2295333e+00   3.3595570e+00   3.4439356e+00   3.5208870e+00   3.5677184e+00   3.5079792e+00   3.3661397e+00   3.2670141e+00   3.2542796e+00   3.2526092e+00   3.2599344e+00   3.2908698e+00   3.3184152e+00   3.3077146e+00   3.2993408e+00   3.3128572e+00   3.3916784e+00   3.5433523e+00   3.8161754e+00   4.1175108e+00   4.5593653e+00   5.1418958e+00   5.7461475e+00   6.1412773e+00
1.5565671e+01   1.6331299e+01   1.6707843e+01   1.6729827e+01   1.6814396e+01   1.7113485e+01   1.7340717e+01   1.7346345e+01   1.7270588e+01   1.7161364e+01   1.7093548e+01   1.7075709e+01   1.7018435e+01   1.6920409e+01   1.6754250e+01   1.6630840e+01   1.6514897e+01   1.6412563e+01   1.6271672e+01   1.6145297e+01   1.6064257e+01   1.5988792e+01   1.5972143e+01   1.5970825e+01   1.6030629e+01   1.5987575e+01   1.5903323e+01   1.5829894e+01   1.5772595e+01   1.5733902e+01   1.5732586e+01   1.5740390e+01   1.5756613e+01   1.5712704e+01   1.5628075e+01   1.5489112e+01   1.5384174e+01   1.5320883e+01   1.5225292e+01   1.5119927e+01   1.4975282e+01   1.4799938e+01   1.4693818e+01   1.4583104e+01   1.4452010e+01   1.4235070e+01   1.4020979e+01   1.3722528e+01   1.3487437e+01   1.3410451e+01   1.3323221e+01   1.3289410e+01   1.3247607e+01   1.3178810e+01   1.3113994e+01   1.3053778e+01   1.2969635e+01   1.2900069e+01   1.2776266e+01   1.1761116e+01   9.1336102e+00   8.1258811e+00   7.1192403e+00   5.8125306e+00   4.4450442e+00   3.7114262e+00   3.4034556e+00   3.3377233e+00   3.3356753e+00   3.3312871e+00   3.3300820e+00   3.3290966e+00   3.3276394e+00   3.3272770e+00   3.3252754e+00   3.3240565e+00   3.3226936e+00   3.3216326e+00   3.3204412e+00   3.3192361e+00   3.3180311e+00   3.3158869e+00   3.3156209e+00   3.3145955e+00   3.3145499e+00   3.3155418e+00   3.3111758e+00   3.3097159e+00   3.3101535e+00   3.3136466e+00   3.1575654e+00   3.1554838e+00   3.1716764e+00   3.1482066e+00   3.0341761e+00   2.9999807e+00   2.9982791e+00   3.0386063e+00   3.2823814e+00   3.2966602e+00   3.2931166e+00   3.2918062e+00   3.2897550e+00   3.2683029e+00   3.1188608e+00   2.8070508e+00   2.4386134e+00   2.2111366e+00   2.3630725e+00   2.8068164e+00   3.2713068e+00   3.2789059e+00   3.2776290e+00   3.2763384e+00   3.2750478e+00   3.2738580e+00   3.2343607e+00   2.8725467e+00   2.1517109e+00   2.3002242e+00   2.9326683e+00   3.2223223e+00   3.2746122e+00   3.3749656e+00   3.5311131e+00   3.6372556e+00   3.7344744e+00   3.7363937e+00   3.5979055e+00   3.3827325e+00   3.2791525e+00   3.2542154e+00   3.3161281e+00   3.5230799e+00   3.6990860e+00   3.7503029e+00   3.7490972e+00   3.7570595e+00   3.9035005e+00   4.2019824e+00   4.5641516e+00   5.0025927e+00   5.4974419e+00   6.0150980e+00   6.3927019e+00   6.5497919e+00
1.5396945e+01   1.6197227e+01   1.6670950e+01   1.6722878e+01   1.6666168e+01   1.6816868e+01   1.7195555e+01   1.7428883e+01   1.7398455e+01   1.7358902e+01   1.7214368e+01   1.7100504e+01   1.7016862e+01   1.6921086e+01   1.6801174e+01   1.6616830e+01   1.6400259e+01   1.6257635e+01   1.6124703e+01   1.6022577e+01   1.5927037e+01   1.5841875e+01   1.5797761e+01   1.5781203e+01   1.5802829e+01   1.5809338e+01   1.5774695e+01   1.5738261e+01   1.5657502e+01   1.5582755e+01   1.5584499e+01   1.5582465e+01   1.5584856e+01   1.5569788e+01   1.5518947e+01   1.5391484e+01   1.5217331e+01   1.5103484e+01   1.5006590e+01   1.4923283e+01   1.4811831e+01   1.4609574e+01   1.4479967e+01   1.4352577e+01   1.4212439e+01   1.3972227e+01   1.3700213e+01   1.3446663e+01   1.3197367e+01   1.3069110e+01   1.3013081e+01   1.2982109e+01   1.2987561e+01   1.2972357e+01   1.2987082e+01   1.2947388e+01   1.2892918e+01   1.2832951e+01   1.2740788e+01   1.2426504e+01   1.0024191e+01   8.5436573e+00   7.6379423e+00   6.6296340e+00   5.4484274e+00   4.0321363e+00   3.3931265e+00   3.3333722e+00   3.3300074e+00   3.3313948e+00   3.3301899e+00   3.3289850e+00   3.3266067e+00   3.3265751e+00   3.3253702e+00   3.3241652e+00   3.3240398e+00   3.3218493e+00   3.3205504e+00   3.3193455e+00   3.3181406e+00   3.3219759e+00   3.3180529e+00   3.3494670e+00   3.3900432e+00   3.3620626e+00   3.3302748e+00   3.3370305e+00   3.3754501e+00   3.4145871e+00   3.0994053e+00   3.0048431e+00   3.0053466e+00   3.0033897e+00   2.9991865e+00   2.9995263e+00   2.9989687e+00   3.0824565e+00   3.2837646e+00   3.2935806e+00   3.2932293e+00   3.2915586e+00   3.2683099e+00   3.1501894e+00   2.6827018e+00   2.3147001e+00   2.3186353e+00   2.4273598e+00   2.7177487e+00   3.2170280e+00   3.2802008e+00   3.2790341e+00   3.2784500e+00   3.2765146e+00   3.2751627e+00   3.2720970e+00   3.1083325e+00   2.5543500e+00   2.0402191e+00   2.6367374e+00   3.1640659e+00   3.2678867e+00   3.2875052e+00   3.4151751e+00   3.5689035e+00   3.7010733e+00   3.8196489e+00   3.8503305e+00   3.8591586e+00   3.7512423e+00   3.5327636e+00   3.3836107e+00   3.4505710e+00   3.7120757e+00   3.9740074e+00   4.1584265e+00   4.2572484e+00   4.3329531e+00   4.5505581e+00   4.9262382e+00   5.2811057e+00   5.7051693e+00   6.1453850e+00   6.4307281e+00   6.5997545e+00   6.7440751e+00
1.5506623e+01   1.6126134e+01   1.6610810e+01   1.6755031e+01   1.6709219e+01   1.6668281e+01   1.6908279e+01   1.7349384e+01   1.7572847e+01   1.7532785e+01   1.7404986e+01   1.7260406e+01   1.7100807e+01   1.6954015e+01   1.6802670e+01   1.6625876e+01   1.6396589e+01   1.6185844e+01   1.6041483e+01   1.5939226e+01   1.5844186e+01   1.5766000e+01   1.5695109e+01   1.5660797e+01   1.5654566e+01   1.5623673e+01   1.5639540e+01   1.5656259e+01   1.5617043e+01   1.5503308e+01   1.5406524e+01   1.5375182e+01   1.5366656e+01   1.5349079e+01   1.5301364e+01   1.5203814e+01   1.5043883e+01   1.4914675e+01   1.4771607e+01   1.4677651e+01   1.4556499e+01   1.4410177e+01   1.4263914e+01   1.4101700e+01   1.3955722e+01   1.3750292e+01   1.3485283e+01   1.3194838e+01   1.2939115e+01   1.2750663e+01   1.2634955e+01   1.2637298e+01   1.2597066e+01   1.2630235e+01   1.2686221e+01   1.2680232e+01   1.2690395e+01   1.2652255e+01   1.2540063e+01   1.2064966e+01   1.0239963e+01   9.0363323e+00   8.8493789e+00   8.2768280e+00   6.8119878e+00   5.3102577e+00   4.0003293e+00   3.3789614e+00   3.3293649e+00   3.3315026e+00   3.3302978e+00   3.3290931e+00   3.3288900e+00   3.3266835e+00   3.3254787e+00   3.3242740e+00   3.3193972e+00   3.3215450e+00   3.3206596e+00   3.3194549e+00   3.3182698e+00   3.3258264e+00   3.4100530e+00   3.4947201e+00   3.4972083e+00   3.5056143e+00   3.4777394e+00   3.4668424e+00   3.3975345e+00   3.1771370e+00   3.0243134e+00   3.0081011e+00   3.0068112e+00   3.0078540e+00   3.0035324e+00   3.0057932e+00   3.0185007e+00   3.1930178e+00   3.3016771e+00   3.2968394e+00   3.2998218e+00   3.2983033e+00   3.2544693e+00   2.7216410e+00   2.3734257e+00   2.7041857e+00   2.9081998e+00   2.9379053e+00   3.2105491e+00   3.2818322e+00   3.2804476e+00   3.2791485e+00   3.2782749e+00   3.2766041e+00   3.2753392e+00   3.2086464e+00   2.7857275e+00   2.1428863e+00   2.3203745e+00   2.9596738e+00   3.2428296e+00   3.2742224e+00   3.3595810e+00   3.4963467e+00   3.6355855e+00   3.7735582e+00   3.9078185e+00   4.0081814e+00   4.0470634e+00   4.0472798e+00   3.9825640e+00   3.8995789e+00   3.8843448e+00   4.0302609e+00   4.2674169e+00   4.5145610e+00   4.7356029e+00   4.8778888e+00   5.1527011e+00   5.4868477e+00   5.8145470e+00   6.1663461e+00   6.4511295e+00   6.6266305e+00   6.7894383e+00   6.9538511e+00
1.5950361e+01   1.6239036e+01   1.6528318e+01   1.6713372e+01   1.6760675e+01   1.6663628e+01   1.6691045e+01   1.7049205e+01   1.7531578e+01   1.7654166e+01   1.7557081e+01   1.7420566e+01   1.7262081e+01   1.7043073e+01   1.6769388e+01   1.6563616e+01   1.6340136e+01   1.6129155e+01   1.5964502e+01   1.5862565e+01   1.5786528e+01   1.5713000e+01   1.5645099e+01   1.5553925e+01   1.5506457e+01   1.5467713e+01   1.5487979e+01   1.5509035e+01   1.5475214e+01   1.5381683e+01   1.5265300e+01   1.5181924e+01   1.5140524e+01   1.5104429e+01   1.5053724e+01   1.4957681e+01   1.4858980e+01   1.4670763e+01   1.4504117e+01   1.4350060e+01   1.4249180e+01   1.4071264e+01   1.3905212e+01   1.3778344e+01   1.3652703e+01   1.3486674e+01   1.3295661e+01   1.2998973e+01   1.2745178e+01   1.2538862e+01   1.2397386e+01   1.2327495e+01   1.2294859e+01   1.2324471e+01   1.2378000e+01   1.2372281e+01   1.2410928e+01   1.2349497e+01   1.2110947e+01   1.1530581e+01   1.0527440e+01   9.8456258e+00   9.7369974e+00   9.5361877e+00   8.5123468e+00   7.1338961e+00   5.6720865e+00   4.1148851e+00   3.3857616e+00   3.3318373e+00   3.3304058e+00   3.3292011e+00   3.3312674e+00   3.3267919e+00   3.3255873e+00   3.3243827e+00   3.3229629e+00   3.3219547e+00   3.3207688e+00   3.3195839e+00   3.3295253e+00   3.4133476e+00   3.5420685e+00   3.6008852e+00   3.6136257e+00   3.6140972e+00   3.6099292e+00   3.5990216e+00   3.4810604e+00   3.0621501e+00   3.0135295e+00   3.0150656e+00   3.0137759e+00   3.0124858e+00   3.0185159e+00   3.0920923e+00   3.2104660e+00   3.3020223e+00   3.3060213e+00   3.3026319e+00   3.3034547e+00   3.2861808e+00   2.8378220e+00   2.3065094e+00   2.8789025e+00   3.1231605e+00   3.1044957e+00   3.2169551e+00   3.2909553e+00   3.2911480e+00   3.2871131e+00   3.2845209e+00   3.2819293e+00   3.2772200e+00   3.2602979e+00   2.9908434e+00   2.3406286e+00   2.1217514e+00   2.7809906e+00   3.2067147e+00   3.2686079e+00   3.2961416e+00   3.4351478e+00   3.5759445e+00   3.7109844e+00   3.8535814e+00   3.9946933e+00   4.1095699e+00   4.2193336e+00   4.2836573e+00   4.3223122e+00   4.3601747e+00   4.3535881e+00   4.4571535e+00   4.6253472e+00   4.9104177e+00   5.1519328e+00   5.3736292e+00   5.6144384e+00   5.9136202e+00   6.2258977e+00   6.4396546e+00   6.6019509e+00   6.7392886e+00   6.8801519e+00   7.0524313e+00
1.6284105e+01   1.6446000e+01   1.6528556e+01   1.6592270e+01   1.6645595e+01   1.6626420e+01   1.6606916e+01   1.6835185e+01   1.7265047e+01   1.7650810e+01   1.7676465e+01   1.7587760e+01   1.7391583e+01   1.7145716e+01   1.6874896e+01   1.6587918e+01   1.6298794e+01   1.6088451e+01   1.5944445e+01   1.5804403e+01   1.5714578e+01   1.5661588e+01   1.5605408e+01   1.5509671e+01   1.5402931e+01   1.5323225e+01   1.5311625e+01   1.5310023e+01   1.5285642e+01   1.5207908e+01   1.5129121e+01   1.5039638e+01   1.4973022e+01   1.4930700e+01   1.4852873e+01   1.4728119e+01   1.4640637e+01   1.4450268e+01   1.4202863e+01   1.4069243e+01   1.3918207e+01   1.3745946e+01   1.3618417e+01   1.3520897e+01   1.3455509e+01   1.3357266e+01   1.3209714e+01   1.2992857e+01   1.2796491e+01   1.2626562e+01   1.2441489e+01   1.2239050e+01   1.2141552e+01   1.2074419e+01   1.2067603e+01   1.2058173e+01   1.2000295e+01   1.1842851e+01   1.1625512e+01   1.1261037e+01   1.0835148e+01   1.0467447e+01   1.0177404e+01   9.9295455e+00   9.6886787e+00   9.2891500e+00   8.6196901e+00   7.0569581e+00   5.1089953e+00   3.9406266e+00   3.4407730e+00   3.3330038e+00   3.3313373e+00   3.3269003e+00   3.3256959e+00   3.3244914e+00   3.3261581e+00   3.3226505e+00   3.3278078e+00   3.3433684e+00   3.4008088e+00   3.5406515e+00   3.6241375e+00   3.6489697e+00   3.6574414e+00   3.6530150e+00   3.6140285e+00   3.4773588e+00   3.2151691e+00   3.0397976e+00   3.0151093e+00   3.0151769e+00   3.0145690e+00   3.0157516e+00   3.0253541e+00   3.1182655e+00   3.2986200e+00   3.3074374e+00   3.3061474e+00   3.3013948e+00   3.2890238e+00   3.0115529e+00   2.3398343e+00   2.4394377e+00   3.1186592e+00   3.1889136e+00   3.2389616e+00   3.2934184e+00   3.2908060e+00   3.2919574e+00   3.2906674e+00   3.2893774e+00   3.2832860e+00   3.2574873e+00   3.0897423e+00   2.6103096e+00   2.0328901e+00   2.5042888e+00   3.0954692e+00   3.2680548e+00   3.2687416e+00   3.3191621e+00   3.4532939e+00   3.6132460e+00   3.7693983e+00   3.9285151e+00   4.0839349e+00   4.2306592e+00   4.3539275e+00   4.4814084e+00   4.5888565e+00   4.6842921e+00   4.7741926e+00   4.8296405e+00   5.0323595e+00   5.2967642e+00   5.5035766e+00   5.7384988e+00   5.9893820e+00   6.2322970e+00   6.4390726e+00   6.5871333e+00   6.6991362e+00   6.8196106e+00   6.9318506e+00   7.0701270e+00
1.6521797e+01   1.6478843e+01   1.6497274e+01   1.6439631e+01   1.6410208e+01   1.6491045e+01   1.6618470e+01   1.6788479e+01   1.7111694e+01   1.7503847e+01   1.7552731e+01   1.7422859e+01   1.7352473e+01   1.7182698e+01   1.6869020e+01   1.6593771e+01   1.6333869e+01   1.6109190e+01   1.5924832e+01   1.5779562e+01   1.5676744e+01   1.5590256e+01   1.5510967e+01   1.5430913e+01   1.5334248e+01   1.5249175e+01   1.5200531e+01   1.5186369e+01   1.5141250e+01   1.5066928e+01   1.5017719e+01   1.4948414e+01   1.4861791e+01   1.4797613e+01   1.4697655e+01   1.4562664e+01   1.4392875e+01   1.4191889e+01   1.3916828e+01   1.3705989e+01   1.3575972e+01   1.3409488e+01   1.3269817e+01   1.3172553e+01   1.3141883e+01   1.3133312e+01   1.3115648e+01   1.3047375e+01   1.2944609e+01   1.2822149e+01   1.2631005e+01   1.2433876e+01   1.2186776e+01   1.1964210e+01   1.1833735e+01   1.1737467e+01   1.1589003e+01   1.1394433e+01   1.1192888e+01   1.0954991e+01   1.0702572e+01   1.0464226e+01   1.0256443e+01   1.0105340e+01   9.9864375e+00   9.8426294e+00   9.6671275e+00   9.2212775e+00   7.7739578e+00   6.6189429e+00   5.3679308e+00   3.9734811e+00   3.3917502e+00   3.3312296e+00   3.3263462e+00   3.3259948e+00   3.3477095e+00   3.3783873e+00   3.4215754e+00   3.4813386e+00   3.5594378e+00   3.6042818e+00   3.6211156e+00   3.6156552e+00   3.5887636e+00   3.5408455e+00   3.4747047e+00   3.2868134e+00   3.1830532e+00   3.0561890e+00   3.0548289e+00   3.1145742e+00   3.1464360e+00   3.2166507e+00   3.2286594e+00   3.2867273e+00   3.3074250e+00   3.3075496e+00   3.3062597e+00   3.2744578e+00   2.8493867e+00   2.3017849e+00   2.2408425e+00   2.7987809e+00   3.1679963e+00   3.2256322e+00   3.2883684e+00   3.2946512e+00   3.2902468e+00   3.2920715e+00   3.2907817e+00   3.2875796e+00   3.2188921e+00   2.9019003e+00   2.4549141e+00   2.0940108e+00   2.3210690e+00   2.9245015e+00   3.2394043e+00   3.2723371e+00   3.2680128e+00   3.2772041e+00   3.3624371e+00   3.5365546e+00   3.7418109e+00   3.9198294e+00   4.1120679e+00   4.2647417e+00   4.4368286e+00   4.5755997e+00   4.7276570e+00   4.8902157e+00   5.0446225e+00   5.1784890e+00   5.3279963e+00   5.5448370e+00   5.7349468e+00   5.9252932e+00   6.1848132e+00   6.4035843e+00   6.5312179e+00   6.6684716e+00   6.7998254e+00   6.8943493e+00   7.0268235e+00   7.1752454e+00
1.6787450e+01   1.6638509e+01   1.6504083e+01   1.6338852e+01   1.6254791e+01   1.6439806e+01   1.6662098e+01   1.6733603e+01   1.6930507e+01   1.7203379e+01   1.7231443e+01   1.7031475e+01   1.6956055e+01   1.7003852e+01   1.6907462e+01   1.6674510e+01   1.6402857e+01   1.6180432e+01   1.5955350e+01   1.5812557e+01   1.5697137e+01   1.5626785e+01   1.5545768e+01   1.5455031e+01   1.5368920e+01   1.5279964e+01   1.5193684e+01   1.5121416e+01   1.5059444e+01   1.4988812e+01   1.4940586e+01   1.4873263e+01   1.4800985e+01   1.4657496e+01   1.4516582e+01   1.4329729e+01   1.4122214e+01   1.3887900e+01   1.3686879e+01   1.3445445e+01   1.3243540e+01   1.3083146e+01   1.2951181e+01   1.2793926e+01   1.2714133e+01   1.2786272e+01   1.2940916e+01   1.2981857e+01   1.2930664e+01   1.2848909e+01   1.2710198e+01   1.2548652e+01   1.2305360e+01   1.1975520e+01   1.1715557e+01   1.1531405e+01   1.1274592e+01   1.0991390e+01   1.0735187e+01   1.0502947e+01   1.0267379e+01   1.0088495e+01   9.9299924e+00   9.8613102e+00   9.7313247e+00   9.5567719e+00   9.3203337e+00   8.9190640e+00   8.1372127e+00   7.3041081e+00   6.7937439e+00   5.9717799e+00   4.4263217e+00   3.6886995e+00   3.5289734e+00   3.5249726e+00   3.6002566e+00   3.6745102e+00   3.6656155e+00   3.6336127e+00   3.5766627e+00   3.5138628e+00   3.5287068e+00   3.5506866e+00   3.4913337e+00   3.4200623e+00   3.3787299e+00   3.3565138e+00   3.3454495e+00   3.3022831e+00   3.2829297e+00   3.3094303e+00   3.3119739e+00   3.3126385e+00   3.3116888e+00   3.3102352e+00   3.2999515e+00   3.1447647e+00   3.1198748e+00   3.0948483e+00   2.3471170e+00   2.2219209e+00   2.6659542e+00   3.0770648e+00   3.1560830e+00   3.2791447e+00   3.2960547e+00   3.2947650e+00   3.2953540e+00   3.2921856e+00   3.2898888e+00   3.2098893e+00   2.8885361e+00   2.3187092e+00   2.0974377e+00   2.5757771e+00   2.9476155e+00   3.2062443e+00   3.2794561e+00   3.2790999e+00   3.2747899e+00   3.2876136e+00   3.3318482e+00   3.4482020e+00   3.6664201e+00   3.8932229e+00   4.1218095e+00   4.2892068e+00   4.4726629e+00   4.6460662e+00   4.8431450e+00   5.0083543e+00   5.1818087e+00   5.3484876e+00   5.4874851e+00   5.6560201e+00   5.8692695e+00   6.0513292e+00   6.2493246e+00   6.4436515e+00   6.5911800e+00   6.7411810e+00   6.8776034e+00   6.9804336e+00   7.1260756e+00   7.2772342e+00
1.7110395e+01   1.6850221e+01   1.6643144e+01   1.6504654e+01   1.6576023e+01   1.7134473e+01   1.6762590e+01   1.6537034e+01   1.6634573e+01   1.6854268e+01   1.6933497e+01   1.6776766e+01   1.6646172e+01   1.6627848e+01   1.6692917e+01   1.6701135e+01   1.6524819e+01   1.6277841e+01   1.6071345e+01   1.5888477e+01   1.5786790e+01   1.5723266e+01   1.5669058e+01   1.5599635e+01   1.5512757e+01   1.5378409e+01   1.5242665e+01   1.5124598e+01   1.5015209e+01   1.4953106e+01   1.4865280e+01   1.4768017e+01   1.4669142e+01   1.4547537e+01   1.4353998e+01   1.4110994e+01   1.3846381e+01   1.3622527e+01   1.3410518e+01   1.3190018e+01   1.2962324e+01   1.2789929e+01   1.2652127e+01   1.2518893e+01   1.2444791e+01   1.2446816e+01   1.2638967e+01   1.2773960e+01   1.2750889e+01   1.2653919e+01   1.2529773e+01   1.2380353e+01   1.2201919e+01   1.1887613e+01   1.1569349e+01   1.1331595e+01   1.1016486e+01   1.0695740e+01   1.0349575e+01   1.0055708e+01   9.7733948e+00   9.5616736e+00   9.3989303e+00   9.3577160e+00   9.2912165e+00   9.0879649e+00   8.7859151e+00   8.3619726e+00   7.7232813e+00   7.0472208e+00   6.5573677e+00   6.1522307e+00   5.4810293e+00   4.7189231e+00   4.2825549e+00   4.0997440e+00   3.9995500e+00   3.8720389e+00   3.7153300e+00   3.5397145e+00   3.3972646e+00   3.3634311e+00   3.3670510e+00   3.3854382e+00   3.3709270e+00   3.3507204e+00   3.3311115e+00   3.3228730e+00   3.3201653e+00   3.3181302e+00   3.3144727e+00   3.3155107e+00   3.3142216e+00   3.3129321e+00   3.3121179e+00   3.2792981e+00   2.9207921e+00   2.3484062e+00   2.2873392e+00   2.3374809e+00   2.4274302e+00   2.8033723e+00   3.1172929e+00   3.1070012e+00   3.1526800e+00   3.2841516e+00   3.2961683e+00   3.2948788e+00   3.2914291e+00   3.2918218e+00   3.2348340e+00   2.9216231e+00   2.3143764e+00   2.1062684e+00   2.6588163e+00   3.1157376e+00   3.2651211e+00   3.2777491e+00   3.2806803e+00   3.2794045e+00   3.2828819e+00   3.3652906e+00   3.4945277e+00   3.5795792e+00   3.7383596e+00   3.9236356e+00   4.1111328e+00   4.3379369e+00   4.5586606e+00   4.7691339e+00   4.9401003e+00   5.1045621e+00   5.2724575e+00   5.4377192e+00   5.5876457e+00   5.7475909e+00   5.9071063e+00   6.1085205e+00   6.2721840e+00   6.4655177e+00   6.6154903e+00   6.7931252e+00   6.9505096e+00   7.0925394e+00   7.2124958e+00   7.3311875e+00
1.7342786e+01   1.7079073e+01   1.6772212e+01   1.6757982e+01   1.6944415e+01   1.7189809e+01   1.6556334e+01   1.6346581e+01   1.6396409e+01   1.6583595e+01   1.6688851e+01   1.6668349e+01   1.6597894e+01   1.6528165e+01   1.6517782e+01   1.6574776e+01   1.6485217e+01   1.6299694e+01   1.6142816e+01   1.6019612e+01   1.5939144e+01   1.5857284e+01   1.5779813e+01   1.5699607e+01   1.5620605e+01   1.5495933e+01   1.5330622e+01   1.5196377e+01   1.5082715e+01   1.4961284e+01   1.4828342e+01   1.4698325e+01   1.4568986e+01   1.4420189e+01   1.4185332e+01   1.3920588e+01   1.3653364e+01   1.3442851e+01   1.3228412e+01   1.3038510e+01   1.2804572e+01   1.2597253e+01   1.2405861e+01   1.2287931e+01   1.2211807e+01   1.2192504e+01   1.2319566e+01   1.2512641e+01   1.2509564e+01   1.2405167e+01   1.2257914e+01   1.2085630e+01   1.1910371e+01   1.1677947e+01   1.1398108e+01   1.1107797e+01   1.0794243e+01   1.0519081e+01   1.0164341e+01   9.8048179e+00   9.4987167e+00   9.2174453e+00   9.0004105e+00   8.8778896e+00   8.7647739e+00   8.6030399e+00   8.2948786e+00   7.8530456e+00   7.2918765e+00   6.7405294e+00   6.2516651e+00   5.7929607e+00   5.4760195e+00   5.0107707e+00   4.5627062e+00   4.2803106e+00   4.0315125e+00   3.7486197e+00   3.4802160e+00   3.3509109e+00   3.3298491e+00   3.3233211e+00   3.3264996e+00   3.3252957e+00   3.3240919e+00   3.3248890e+00   3.3218583e+00   3.3204805e+00   3.3192767e+00   3.3180531e+00   3.3138115e+00   3.3098364e+00   3.2919776e+00   3.2219503e+00   2.9903074e+00   2.6249354e+00   2.2664880e+00   2.2145035e+00   2.2941852e+00   2.6191132e+00   3.1612644e+00   3.2928516e+00   3.2318365e+00   3.1283955e+00   3.1060127e+00   3.2033911e+00   3.2924019e+00   3.2949926e+00   3.2902099e+00   3.2564470e+00   2.9753508e+00   2.3914215e+00   2.0917442e+00   2.6403630e+00   3.1222169e+00   3.2759630e+00   3.2833746e+00   3.2790468e+00   3.2808096e+00   3.2795202e+00   3.2766937e+00   3.3389817e+00   3.4972548e+00   3.6706321e+00   3.8109057e+00   3.9679072e+00   4.1721704e+00   4.3748015e+00   4.5634222e+00   4.7778068e+00   4.9877147e+00   5.1455823e+00   5.3400828e+00   5.5044315e+00   5.6706561e+00   5.8262455e+00   5.9808970e+00   6.1514863e+00   6.3328301e+00   6.4946504e+00   6.6545253e+00   6.8253923e+00   6.9788570e+00   7.1356824e+00   7.2755608e+00   7.3775244e+00
1.7467571e+01   1.7260404e+01   1.6929167e+01   1.6840334e+01   1.6863249e+01   1.6728019e+01   1.6469327e+01   1.6460714e+01   1.6469765e+01   1.6461865e+01   1.6515664e+01   1.6638176e+01   1.6692730e+01   1.6669987e+01   1.6600164e+01   1.6558263e+01   1.6532086e+01   1.6454724e+01   1.6338252e+01   1.6187713e+01   1.6072738e+01   1.5974105e+01   1.5886022e+01   1.5783628e+01   1.5685823e+01   1.5590064e+01   1.5448332e+01   1.5306443e+01   1.5158491e+01   1.4998910e+01   1.4833282e+01   1.4686159e+01   1.4499317e+01   1.4272705e+01   1.4051668e+01   1.3812823e+01   1.3627051e+01   1.3402320e+01   1.3183181e+01   1.2949533e+01   1.2718445e+01   1.2505171e+01   1.2288808e+01   1.2112759e+01   1.2019863e+01   1.1986595e+01   1.1962441e+01   1.2080651e+01   1.2152591e+01   1.2088753e+01   1.1953889e+01   1.1813342e+01   1.1618199e+01   1.1408825e+01   1.1146096e+01   1.0894633e+01   1.0621491e+01   1.0366597e+01   1.0089900e+01   9.8271599e+00   9.5123329e+00   9.1890155e+00   8.9040541e+00   8.6376838e+00   8.3927572e+00   8.1685308e+00   7.8981593e+00   7.5525836e+00   7.2061031e+00   6.8562273e+00   6.4431192e+00   5.8900181e+00   5.2809086e+00   4.7698214e+00   4.4271669e+00   4.1309228e+00   3.7879891e+00   3.4692804e+00   3.3417821e+00   3.3302478e+00   3.3290167e+00   3.3255760e+00   3.3266094e+00   3.3254057e+00   3.3242021e+00   3.3218755e+00   3.3216971e+00   3.3205911e+00   3.3193875e+00   3.3158822e+00   3.0399896e+00   2.6799418e+00   2.5992464e+00   2.3727666e+00   2.2831813e+00   2.3468296e+00   2.5449424e+00   2.7839448e+00   3.1098970e+00   3.2710248e+00   3.3036042e+00   3.3025996e+00   3.2896544e+00   3.2405527e+00   3.1988972e+00   3.1885487e+00   3.2746572e+00   3.2950867e+00   3.2729338e+00   3.0453397e+00   2.5023095e+00   2.0463961e+00   2.5784305e+00   3.0773097e+00   3.2708134e+00   3.2847790e+00   3.2835036e+00   3.2798826e+00   3.2809449e+00   3.2805363e+00   3.2884552e+00   3.3884328e+00   3.5213091e+00   3.6951725e+00   3.8536033e+00   4.0320360e+00   4.1936306e+00   4.4110407e+00   4.6396931e+00   4.8481087e+00   5.0414437e+00   5.2013133e+00   5.3706824e+00   5.5740762e+00   5.7337787e+00   5.9002252e+00   6.0544367e+00   6.2146646e+00   6.3954965e+00   6.5479858e+00   6.6953912e+00   6.8414777e+00   7.0073774e+00   7.1597922e+00   7.2948284e+00   7.4206219e+00
1.7519712e+01   1.7496855e+01   1.7034863e+01   1.6869158e+01   1.6759537e+01   1.6760166e+01   1.6810287e+01   1.7288597e+01   1.6568087e+01   1.6187781e+01   1.6453075e+01   1.6738977e+01   1.6931603e+01   1.6882231e+01   1.6737830e+01   1.6642424e+01   1.6641769e+01   1.6657059e+01   1.6624241e+01   1.6439085e+01   1.6224598e+01   1.6034517e+01   1.5957715e+01   1.5856823e+01   1.5746734e+01   1.5660510e+01   1.5535582e+01   1.5372626e+01   1.5191034e+01   1.5013200e+01   1.4831039e+01   1.4642260e+01   1.4462549e+01   1.4229523e+01   1.3997311e+01   1.3769471e+01   1.3553341e+01   1.3353837e+01   1.3168053e+01   1.2939892e+01   1.2754274e+01   1.2582531e+01   1.2343097e+01   1.2100812e+01   1.1925276e+01   1.1825417e+01   1.1715406e+01   1.1703820e+01   1.1731616e+01   1.1661215e+01   1.1599659e+01   1.1462658e+01   1.1303019e+01   1.1136966e+01   1.0890531e+01   1.0630250e+01   1.0464334e+01   1.0304310e+01   1.0112697e+01   9.8873037e+00   9.6511952e+00   9.3272889e+00   8.9210079e+00   8.5039797e+00   8.1221777e+00   7.7844101e+00   7.5168438e+00   7.2586963e+00   6.9600795e+00   6.6889538e+00   6.3084899e+00   5.6946625e+00   4.8823000e+00   4.2003237e+00   3.8412071e+00   3.6450181e+00   3.4771714e+00   3.3455179e+00   3.3315332e+00   3.3303297e+00   3.3291262e+00   3.3289863e+00   3.3267192e+00   3.3255157e+00   3.3243122e+00   3.3185152e+00   3.3215057e+00   3.3207018e+00   3.3194983e+00   3.3158477e+00   3.0245579e+00   2.5153219e+00   2.5052290e+00   2.7396417e+00   3.0046203e+00   3.1938998e+00   3.2759791e+00   3.3034317e+00   3.3066259e+00   3.3045931e+00   3.3042436e+00   3.3029545e+00   3.3016655e+00   3.2944962e+00   3.2913620e+00   3.2849048e+00   3.2923066e+00   3.2873271e+00   3.1244179e+00   2.5965007e+00   2.0541806e+00   2.4643189e+00   3.0337275e+00   3.2691885e+00   3.2861748e+00   3.2861062e+00   3.2853305e+00   3.2905045e+00   3.3158401e+00   3.3626537e+00   3.4302969e+00   3.5351755e+00   3.6646937e+00   3.7936007e+00   3.9426116e+00   4.0733138e+00   4.2536649e+00   4.4194922e+00   4.6529117e+00   4.9218603e+00   5.1230109e+00   5.3023136e+00   5.4698763e+00   5.6225634e+00   5.7863401e+00   5.9464268e+00   6.1284797e+00   6.2800796e+00   6.4428719e+00   6.5959609e+00   6.7296451e+00   6.8860685e+00   7.0189786e+00   7.1715626e+00   7.3177829e+00   7.4749178e+00
1.7274318e+01   1.7241024e+01   1.6914004e+01   1.6792657e+01   1.6733668e+01   1.6532771e+01   1.6452730e+01   1.6590843e+01   1.6168505e+01   1.6008887e+01   1.6446778e+01   1.7225258e+01   1.7341031e+01   1.6874281e+01   1.6618271e+01   1.6611867e+01   1.6673551e+01   1.6725934e+01   1.6797217e+01   1.6733951e+01   1.6505593e+01   1.6217532e+01   1.6008973e+01   1.5888406e+01   1.5784636e+01   1.5695123e+01   1.5564623e+01   1.5409557e+01   1.5197427e+01   1.4991363e+01   1.4813928e+01   1.4588475e+01   1.4360657e+01   1.4127284e+01   1.3904995e+01   1.3721940e+01   1.3542071e+01   1.3312353e+01   1.3111736e+01   1.2945143e+01   1.2731987e+01   1.2516439e+01   1.2286147e+01   1.2069823e+01   1.1853661e+01   1.1619052e+01   1.1444258e+01   1.1366993e+01   1.1305564e+01   1.1220912e+01   1.1212620e+01   1.1086093e+01   1.0905750e+01   1.0762381e+01   1.0582688e+01   1.0390391e+01   1.0188342e+01   1.0075685e+01   9.9562528e+00   9.7488420e+00   9.5119265e+00   9.2006849e+00   8.8024571e+00   8.2881959e+00   7.8217477e+00   7.4567932e+00   7.1967242e+00   6.8821424e+00   6.5777880e+00   6.2989923e+00   5.9148426e+00   5.2661947e+00   4.4099322e+00   3.6719323e+00   3.3770350e+00   3.3424545e+00   3.3302764e+00   3.3324462e+00   3.3316424e+00   3.3304391e+00   3.3291963e+00   3.3242871e+00   3.3104083e+00   3.3072111e+00   3.3182177e+00   3.3202950e+00   3.3205416e+00   3.3207357e+00   3.3225907e+00   3.3390432e+00   3.3618612e+00   3.2924947e+00   3.2721609e+00   3.3074069e+00   3.3135409e+00   3.3109598e+00   3.3095118e+00   3.3082229e+00   3.3069340e+00   3.3024836e+00   3.3043563e+00   3.3030674e+00   3.3017785e+00   3.2964443e+00   3.2988489e+00   3.2978921e+00   3.2806122e+00   3.1139141e+00   2.6898892e+00   2.0900659e+00   2.3462554e+00   2.9592473e+00   3.2572124e+00   3.3219828e+00   3.3449477e+00   3.3726552e+00   3.4070815e+00   3.4399617e+00   3.5084763e+00   3.5756256e+00   3.6551224e+00   3.7410075e+00   3.8374551e+00   3.9452465e+00   4.0554550e+00   4.1728860e+00   4.3315058e+00   4.5185437e+00   4.7463983e+00   4.9658368e+00   5.1942373e+00   5.3605118e+00   5.5327799e+00   5.6822857e+00   5.8458004e+00   6.0091605e+00   6.1768121e+00   6.3377941e+00   6.4927053e+00   6.6306657e+00   6.7665794e+00   6.9040836e+00   7.0415921e+00   7.1927183e+00   7.3490140e+00   7.5077166e+00
1.7077357e+01   1.6891074e+01   1.6655064e+01   1.6553821e+01   1.6511525e+01   1.6691764e+01   1.6252694e+01   1.6252473e+01   1.6487240e+01   1.5992290e+01   1.6209844e+01   1.8172936e+01   1.7395967e+01   1.6474151e+01   1.6149960e+01   1.6266968e+01   1.6505458e+01   1.6644077e+01   1.6739067e+01   1.6804804e+01   1.6777877e+01   1.6608873e+01   1.6303894e+01   1.5972726e+01   1.5797825e+01   1.5713383e+01   1.5562318e+01   1.5384340e+01   1.5200884e+01   1.4970519e+01   1.4743613e+01   1.4486790e+01   1.4236387e+01   1.4017409e+01   1.3829900e+01   1.3684628e+01   1.3522139e+01   1.3314274e+01   1.3133021e+01   1.2950462e+01   1.2730884e+01   1.2517598e+01   1.2272597e+01   1.2017195e+01   1.1665925e+01   1.1309548e+01   1.1063037e+01   1.0888905e+01   1.0798796e+01   1.0782536e+01   1.0826445e+01   1.0773173e+01   1.0605962e+01   1.0479263e+01   1.0297469e+01   1.0083731e+01   9.8315075e+00   9.6871340e+00   9.6636564e+00   9.6637541e+00   9.4379635e+00   9.0043390e+00   8.5007101e+00   7.9589614e+00   7.5001023e+00   7.1412456e+00   6.8292189e+00   6.5450681e+00   6.2394363e+00   5.9270350e+00   5.5317831e+00   4.8072308e+00   4.0593537e+00   3.5152893e+00   3.3378350e+00   3.3353611e+00   3.3310914e+00   3.3326881e+00   3.3311404e+00   3.3210123e+00   3.2808485e+00   3.2055304e+00   3.1248683e+00   3.0859167e+00   3.1838005e+00   3.2369850e+00   3.2479874e+00   3.3129146e+00   3.4297992e+00   3.4535227e+00   3.4160092e+00   3.3657918e+00   3.3149889e+00   3.3134901e+00   3.3143030e+00   3.3110954e+00   3.3096239e+00   3.3083351e+00   3.3070464e+00   3.3040840e+00   3.3044690e+00   3.3031802e+00   3.3018915e+00   3.3006028e+00   3.2992746e+00   3.2842164e+00   3.0788096e+00   2.5611037e+00   2.1141984e+00   2.2531738e+00   2.8543854e+00   3.2255721e+00   3.3687867e+00   3.4510823e+00   3.5188166e+00   3.5830507e+00   3.6402938e+00   3.7087523e+00   3.7472995e+00   3.8263672e+00   3.8874203e+00   3.9630728e+00   4.0445791e+00   4.1379542e+00   4.2358139e+00   4.3679321e+00   4.5363187e+00   4.6746604e+00   4.8391482e+00   5.0220171e+00   5.1975640e+00   5.3589835e+00   5.5482314e+00   5.7233018e+00   5.8943270e+00   6.0567863e+00   6.2182695e+00   6.3729467e+00   6.5118499e+00   6.6498558e+00   6.7932949e+00   6.9325815e+00   7.0887349e+00   7.2280185e+00   7.3446942e+00   7.5050584e+00
1.7034004e+01   1.6771556e+01   1.6641998e+01   1.6631159e+01   1.6602140e+01   1.6775686e+01   1.6375327e+01   1.6070258e+01   1.6356955e+01   1.6711692e+01   1.6092419e+01   1.6491884e+01   1.6416985e+01   1.6012149e+01   1.5525510e+01   1.5673482e+01   1.6217216e+01   1.6516660e+01   1.6533146e+01   1.6570739e+01   1.6672972e+01   1.6693215e+01   1.6549516e+01   1.6201164e+01   1.5838879e+01   1.5687252e+01   1.5563135e+01   1.5340045e+01   1.5135982e+01   1.4917841e+01   1.4680825e+01   1.4423706e+01   1.4179227e+01   1.3949802e+01   1.3767066e+01   1.3621752e+01   1.3453259e+01   1.3304637e+01   1.3167973e+01   1.3009326e+01   1.2848911e+01   1.2672838e+01   1.2461488e+01   1.2117960e+01   1.1510496e+01   1.0785087e+01   1.0321711e+01   1.0166345e+01   1.0286391e+01   1.0431517e+01   1.0492404e+01   1.0487200e+01   1.0399261e+01   1.0274773e+01   1.0076263e+01   9.8186050e+00   9.5673373e+00   9.3253207e+00   9.2437204e+00   9.3360846e+00   9.2142189e+00   8.7369200e+00   8.0935468e+00   7.5024651e+00   7.0760121e+00   6.7148794e+00   6.4265364e+00   6.1924276e+00   6.0023452e+00   5.6859532e+00   5.1904225e+00   4.5527179e+00   3.9765458e+00   3.5796225e+00   3.3546858e+00   3.3353187e+00   3.3305987e+00   3.3056793e+00   3.2461601e+00   3.1537214e+00   3.0475916e+00   2.9432030e+00   2.8766519e+00   2.8229362e+00   2.9686132e+00   3.1092974e+00   3.1890614e+00   3.3076490e+00   3.4238647e+00   3.2877418e+00   3.1701889e+00   3.1319158e+00   3.2072186e+00   3.2728408e+00   3.3024645e+00   3.3107268e+00   3.3097359e+00   3.3084474e+00   3.3071588e+00   3.2993755e+00   3.3045816e+00   3.3032931e+00   3.3020045e+00   3.3024621e+00   3.2748309e+00   3.0408676e+00   2.5044959e+00   2.0055636e+00   2.0990422e+00   2.6727781e+00   3.1658132e+00   3.3489865e+00   3.4538662e+00   3.5450423e+00   3.6462489e+00   3.7150351e+00   3.7935095e+00   3.8621386e+00   3.9401837e+00   4.0166794e+00   4.0923387e+00   4.1714749e+00   4.2483366e+00   4.3329693e+00   4.4345364e+00   4.5444542e+00   4.6733530e+00   4.8565697e+00   5.0071102e+00   5.1288901e+00   5.2655914e+00   5.4122054e+00   5.5638248e+00   5.7602027e+00   5.9166872e+00   6.0847414e+00   6.2512573e+00   6.3930446e+00   6.5317705e+00   6.6759907e+00   6.8135356e+00   6.9710317e+00   7.1138692e+00   7.2286449e+00   7.3674973e+00   7.5063748e+00
1.7160619e+01   1.7140044e+01   1.7336819e+01   1.7207926e+01   1.6848251e+01   1.6807760e+01   1.6620357e+01   1.6008593e+01   1.5798438e+01   1.6210346e+01   1.5969562e+01   1.5632208e+01   1.5638169e+01   1.5673548e+01   1.5239574e+01   1.5271969e+01   1.6114976e+01   1.6400094e+01   1.6112349e+01   1.6094023e+01   1.6106894e+01   1.6197941e+01   1.6299247e+01   1.6146507e+01   1.5794572e+01   1.5611536e+01   1.5510688e+01   1.5325120e+01   1.5103714e+01   1.4878208e+01   1.4651584e+01   1.4434146e+01   1.4186600e+01   1.3884556e+01   1.3635532e+01   1.3465987e+01   1.3342239e+01   1.3242813e+01   1.3142814e+01   1.3055774e+01   1.2941373e+01   1.2784841e+01   1.2607707e+01   1.2222994e+01   1.1333095e+01   1.0206057e+01   9.6519619e+00   9.5730210e+00   9.8502040e+00   1.0109690e+01   1.0199580e+01   1.0212583e+01   1.0215114e+01   1.0127066e+01   9.9819637e+00   9.7405903e+00   9.4298765e+00   9.1110725e+00   8.8988776e+00   8.7961779e+00   8.6104783e+00   8.1167542e+00   7.4913646e+00   6.9514673e+00   6.5904684e+00   6.3380790e+00   6.1058115e+00   5.9235589e+00   5.7331172e+00   5.4287677e+00   4.9714192e+00   4.4720138e+00   4.0087150e+00   3.6862751e+00   3.4600749e+00   3.3191890e+00   3.2054372e+00   3.0784423e+00   2.8940545e+00   2.8172226e+00   2.7847034e+00   2.6939687e+00   2.6295660e+00   2.6042607e+00   2.7436883e+00   2.7890957e+00   2.9353614e+00   3.0771210e+00   2.8793047e+00   2.4826110e+00   2.2218547e+00   2.2663393e+00   2.4360119e+00   2.7219443e+00   3.0216677e+00   3.2191000e+00   3.2747135e+00   3.2943182e+00   3.2996334e+00   3.3006977e+00   3.3026034e+00   3.3011070e+00   3.2975472e+00   3.2585531e+00   2.9999884e+00   2.4810834e+00   2.0198485e+00   2.1144982e+00   2.6528466e+00   3.0968418e+00   3.2771777e+00   3.3474485e+00   3.4277574e+00   3.5129998e+00   3.6124245e+00   3.7246385e+00   3.8377182e+00   3.9417374e+00   4.0388527e+00   4.1178543e+00   4.2047713e+00   4.3066278e+00   4.3960995e+00   4.4689574e+00   4.5351652e+00   4.6574514e+00   4.8190961e+00   4.9767281e+00   5.1202733e+00   5.2418204e+00   5.3442952e+00   5.4628496e+00   5.6188721e+00   5.7744238e+00   5.9366657e+00   6.0998338e+00   6.2558193e+00   6.4049327e+00   6.5587211e+00   6.6815068e+00   6.8356454e+00   6.9589718e+00   7.1033072e+00   7.2269255e+00   7.3459084e+00   7.4905305e+00
1.7282503e+01   1.8252611e+01   1.8867260e+01   1.7927612e+01   1.7228370e+01   1.7039856e+01   1.6974161e+01   1.6507003e+01   1.5743849e+01   1.5635794e+01   1.5771137e+01   1.5701182e+01   1.5597469e+01   1.5321583e+01   1.5586110e+01   1.5809304e+01   1.5846777e+01   1.5652620e+01   1.5640000e+01   1.5759905e+01   1.5398677e+01   1.5334502e+01   1.5606980e+01   1.5673928e+01   1.5412371e+01   1.5242181e+01   1.5292932e+01   1.5216034e+01   1.5021253e+01   1.4813134e+01   1.4584662e+01   1.4345548e+01   1.4070893e+01   1.3773152e+01   1.3528124e+01   1.3298137e+01   1.3153880e+01   1.3056860e+01   1.3019438e+01   1.2986747e+01   1.2916556e+01   1.2778898e+01   1.2536846e+01   1.2078325e+01   1.1084074e+01   9.9434604e+00   9.4191220e+00   9.2792821e+00   9.5305826e+00   9.8040481e+00   9.9014267e+00   9.9349775e+00   9.9395517e+00   9.9483218e+00   9.8986804e+00   9.7734813e+00   9.5267320e+00   9.2165976e+00   8.8378107e+00   8.4375672e+00   8.0290609e+00   7.5393242e+00   7.0312433e+00   6.5499868e+00   6.2844275e+00   6.0906915e+00   5.9004213e+00   5.7220797e+00   5.5172414e+00   5.2491388e+00   4.8886121e+00   4.4999803e+00   4.1517718e+00   3.8061727e+00   3.4903455e+00   3.2157240e+00   2.9936469e+00   2.7931857e+00   2.5344138e+00   2.3908344e+00   2.3439834e+00   2.4416019e+00   2.4360495e+00   2.3838686e+00   2.4370693e+00   2.4559543e+00   2.5783612e+00   2.5190731e+00   2.1535817e+00   2.0227144e+00   2.2172945e+00   2.2059053e+00   2.0651208e+00   2.0100155e+00   2.2069640e+00   2.4696999e+00   2.6793139e+00   2.8487006e+00   2.9400888e+00   2.9702853e+00   2.9828844e+00   2.9830040e+00   2.9403930e+00   2.7424094e+00   2.3346691e+00   2.0058087e+00   2.1629602e+00   2.6200432e+00   2.9981887e+00   3.1680479e+00   3.2344225e+00   3.2889121e+00   3.3446242e+00   3.4605052e+00   3.5709078e+00   3.6869614e+00   3.8017062e+00   3.9205288e+00   4.0437493e+00   4.1644981e+00   4.2558790e+00   4.3337738e+00   4.3993245e+00   4.4987168e+00   4.6354733e+00   4.7725630e+00   4.9158932e+00   5.0375112e+00   5.1643519e+00   5.2869338e+00   5.4181331e+00   5.5528337e+00   5.6598338e+00   5.8071738e+00   5.9500251e+00   6.1026368e+00   6.2532533e+00   6.4009567e+00   6.5572577e+00   6.6733700e+00   6.8087482e+00   6.9299256e+00   7.0635857e+00   7.1901667e+00   7.3337846e+00   7.4762033e+00
1.7091606e+01   1.9003139e+01   1.9501946e+01   1.8659744e+01   1.7681344e+01   1.6986798e+01   1.7021693e+01   1.6999394e+01   1.6323501e+01   1.5522690e+01   1.5460145e+01   1.5559217e+01   1.5581386e+01   1.5154588e+01   1.6231824e+01   1.6961814e+01   1.5250065e+01   1.4978587e+01   1.5461824e+01   1.5573492e+01   1.5010638e+01   1.4812745e+01   1.4954668e+01   1.5107090e+01   1.4979135e+01   1.4796108e+01   1.4813757e+01   1.4930263e+01   1.4880824e+01   1.4694394e+01   1.4452946e+01   1.4212789e+01   1.3981182e+01   1.3718619e+01   1.3445130e+01   1.3174898e+01   1.2953923e+01   1.2804300e+01   1.2741952e+01   1.2757418e+01   1.2789478e+01   1.2706731e+01   1.2540896e+01   1.2021442e+01   1.1088545e+01   1.0239671e+01   9.7416445e+00   9.3177107e+00   9.0322375e+00   9.3494172e+00   9.6158032e+00   9.5508671e+00   9.5227267e+00   9.6296547e+00   9.7463488e+00   9.7980140e+00   9.6465909e+00   9.4040848e+00   8.8654315e+00   8.1158122e+00   7.5534912e+00   7.1709163e+00   6.9805260e+00   6.7238992e+00   6.3845466e+00   6.0975287e+00   5.8133756e+00   5.5898422e+00   5.3581008e+00   5.0989364e+00   4.8049210e+00   4.4724728e+00   4.1107750e+00   3.7225380e+00   3.3672847e+00   3.0550069e+00   2.7886029e+00   2.4845285e+00   2.1307001e+00   2.0002949e+00   1.9385974e+00   1.8519195e+00   1.9632000e+00   2.0039761e+00   2.0227989e+00   2.1511883e+00   2.2516675e+00   2.0611064e+00   2.0597721e+00   2.5229271e+00   2.9803429e+00   3.0515427e+00   2.8520285e+00   2.4925898e+00   2.1920749e+00   2.0636148e+00   2.0224629e+00   2.0530274e+00   2.0840176e+00   2.1139792e+00   2.1042354e+00   2.0994407e+00   2.0877655e+00   2.0238270e+00   1.9951405e+00   2.2578110e+00   2.6609591e+00   2.9265019e+00   3.0238341e+00   3.1133844e+00   3.1963107e+00   3.2745177e+00   3.3165377e+00   3.4262673e+00   3.5405207e+00   3.6591817e+00   3.7829052e+00   3.9018742e+00   3.9985999e+00   4.0981522e+00   4.2081610e+00   4.3521766e+00   4.4779865e+00   4.5796159e+00   4.6999567e+00   4.8076549e+00   4.9388687e+00   5.0613927e+00   5.1977016e+00   5.3369545e+00   5.4770590e+00   5.6054967e+00   5.7174704e+00   5.8211745e+00   5.9493192e+00   6.0810990e+00   6.2366516e+00   6.3773978e+00   6.5067465e+00   6.6238002e+00   6.7550879e+00   6.8848237e+00   7.0309886e+00   7.1744730e+00   7.3375228e+00   7.4580164e+00
1.4574666e+01   1.6826623e+01   1.8563580e+01   1.9251653e+01   1.7771720e+01   1.7082399e+01   1.6931480e+01   1.6905964e+01   1.6139008e+01   1.5736455e+01   1.5163230e+01   1.5668828e+01   1.5901850e+01   1.5186145e+01   1.5042929e+01   1.5130463e+01   1.4983670e+01   1.4903475e+01   1.5083683e+01   1.5000815e+01   1.5045011e+01   1.4828183e+01   1.4690155e+01   1.4742873e+01   1.4768452e+01   1.4651838e+01   1.4561717e+01   1.4578143e+01   1.4622262e+01   1.4490459e+01   1.4259620e+01   1.3988756e+01   1.3788335e+01   1.3574653e+01   1.3315498e+01   1.3038916e+01   1.2780377e+01   1.2589552e+01   1.2457428e+01   1.2474190e+01   1.2583854e+01   1.2474584e+01   1.2255783e+01   1.1853223e+01   1.1116673e+01   1.0423133e+01   9.9278899e+00   9.5068660e+00   8.2642136e+00   7.1368673e+00   7.7629629e+00   8.3686154e+00   8.6851450e+00   9.0116648e+00   9.4753443e+00   9.6962016e+00   9.5404936e+00   9.2849230e+00   8.6551173e+00   7.7409119e+00   6.9780130e+00   6.6185302e+00   6.5359621e+00   6.4883205e+00   6.3274037e+00   6.0515631e+00   5.7238669e+00   5.4487377e+00   5.2092947e+00   4.9891885e+00   4.7749542e+00   4.4389043e+00   4.0589650e+00   3.6910101e+00   3.3287853e+00   3.0163532e+00   2.7027452e+00   2.3279846e+00   1.9670319e+00   1.7810930e+00   1.5842882e+00   1.4488511e+00   1.3630698e+00   1.5008826e+00   1.6778516e+00   1.6662169e+00   2.0084422e+00   1.9619640e+00   2.4279770e+00   2.9955832e+00   3.1941651e+00   3.2242265e+00   3.2465696e+00   3.1736388e+00   3.0557132e+00   2.8780356e+00   2.6820319e+00   2.5328905e+00   2.4530398e+00   2.4199501e+00   2.3541839e+00   2.3272788e+00   2.3287327e+00   2.3637280e+00   2.5014922e+00   2.7308893e+00   2.9297295e+00   2.9760099e+00   3.0554879e+00   3.1233298e+00   3.1906962e+00   3.2682646e+00   3.3025587e+00   3.4009528e+00   3.5129620e+00   3.6311751e+00   3.7455158e+00   3.8561096e+00   3.9729406e+00   4.0877043e+00   4.2018426e+00   4.3249223e+00   4.4798896e+00   4.5960815e+00   4.7388433e+00   4.8718687e+00   4.9984254e+00   5.1348993e+00   5.2538621e+00   5.3757568e+00   5.4923088e+00   5.6037588e+00   5.7101313e+00   5.8196390e+00   5.9252871e+00   6.0348250e+00   6.1632245e+00   6.2825990e+00   6.4158373e+00   6.5355870e+00   6.6792714e+00   6.8366767e+00   6.9919246e+00   7.1328457e+00   7.2823376e+00   7.3811275e+00
4.4606536e+00   1.3496558e+01   1.8244282e+01   1.7897639e+01   1.7327446e+01   1.7123830e+01   1.6888770e+01   1.6660660e+01   1.7221021e+01   1.7486739e+01   1.5523499e+01   1.4985457e+01   1.5225611e+01   1.5195671e+01   1.5254868e+01   1.4783387e+01   1.4734330e+01   1.4834763e+01   1.4854048e+01   1.4569767e+01   1.5091428e+01   1.4861894e+01   1.4650578e+01   1.4672434e+01   1.4768778e+01   1.4745840e+01   1.4575830e+01   1.4478074e+01   1.4445955e+01   1.4408797e+01   1.4299960e+01   1.4091791e+01   1.3819101e+01   1.3435503e+01   1.3087395e+01   1.2839931e+01   1.2624216e+01   1.2431880e+01   1.2280799e+01   1.2225341e+01   1.2301631e+01   1.2204696e+01   1.1895014e+01   1.1451879e+01   1.0850117e+01   1.0250037e+01   9.6080130e+00   8.8284828e+00   7.6341084e+00   6.4389063e+00   6.2641523e+00   6.8818692e+00   7.6705816e+00   8.3392790e+00   9.0404610e+00   9.3884553e+00   9.2097046e+00   8.8759799e+00   8.3137879e+00   7.5198815e+00   6.6331805e+00   6.2781954e+00   6.1482537e+00   6.0691485e+00   5.9722207e+00   5.7943459e+00   5.5502128e+00   5.2961634e+00   5.0919597e+00   4.9563061e+00   4.7646951e+00   4.3916603e+00   3.9484388e+00   3.5440008e+00   3.1633725e+00   2.8076668e+00   2.4465489e+00   1.9793272e+00   1.5056205e+00   1.3561390e+00   1.3083249e+00   1.2998833e+00   1.2982470e+00   1.2979444e+00   1.3145611e+00   1.6137569e+00   1.9370719e+00   1.9461681e+00   2.4187927e+00   3.0169993e+00   3.1279177e+00   3.1544773e+00   3.1969763e+00   3.2183266e+00   3.2351968e+00   3.2369920e+00   3.2046898e+00   3.1901349e+00   3.1058214e+00   3.0544607e+00   2.9833261e+00   2.9192012e+00   2.8815046e+00   2.8785760e+00   2.8978006e+00   2.9310863e+00   2.9859003e+00   3.0001411e+00   3.0706294e+00   3.1075542e+00   3.1857978e+00   3.2427439e+00   3.2915446e+00   3.3569470e+00   3.4709084e+00   3.5937124e+00   3.7100613e+00   3.8396612e+00   3.9715158e+00   4.0863541e+00   4.1995203e+00   4.3221749e+00   4.4796428e+00   4.5994576e+00   4.7405759e+00   4.9401668e+00   5.1048045e+00   5.2197333e+00   5.3165155e+00   5.4158508e+00   5.5040471e+00   5.5720752e+00   5.6717164e+00   5.7784352e+00   5.8854352e+00   5.9792930e+00   6.0817903e+00   6.1821960e+00   6.3139302e+00   6.4678087e+00   6.6273068e+00   6.7869959e+00   6.9309428e+00   7.0702039e+00   7.1757636e+00   7.2517911e+00
2.0002512e+00   8.2930337e+00   1.5718841e+01   1.7213655e+01   1.7076855e+01   1.7101704e+01   1.7181563e+01   1.6850894e+01   1.7111834e+01   1.7148158e+01   1.5942713e+01   1.5243510e+01   1.4911815e+01   1.4848510e+01   1.4964257e+01   1.4825194e+01   1.4593609e+01   1.4512786e+01   1.4421208e+01   1.4343004e+01   1.4512835e+01   1.4589578e+01   1.4802352e+01   1.5036237e+01   1.5047097e+01   1.4766384e+01   1.4596498e+01   1.4520312e+01   1.4470253e+01   1.4419327e+01   1.4420370e+01   1.4346231e+01   1.4019476e+01   1.3366436e+01   1.2842203e+01   1.2629076e+01   1.2535024e+01   1.2464910e+01   1.2418091e+01   1.2415057e+01   1.2387660e+01   1.2156715e+01   1.1702869e+01   1.1113860e+01   1.0635167e+01   1.0119382e+01   9.3186680e+00   8.2337148e+00   7.1191922e+00   6.3785603e+00   6.1278557e+00   6.3236510e+00   6.8891236e+00   7.5769636e+00   8.2706942e+00   8.6368354e+00   8.6115942e+00   8.3795219e+00   7.9636933e+00   7.4031527e+00   6.7007316e+00   6.2794918e+00   6.0513665e+00   5.8548958e+00   5.6676405e+00   5.4984836e+00   5.3400229e+00   5.1466854e+00   4.9781727e+00   4.7836378e+00   4.6040655e+00   4.2302165e+00   3.7780493e+00   3.3105761e+00   2.9134973e+00   2.4978428e+00   2.0070867e+00   1.5097757e+00   1.3121805e+00   1.3013139e+00   1.3001119e+00   1.2979704e+00   1.2977078e+00   1.2965057e+00   1.3435024e+00   1.6856210e+00   1.8305329e+00   1.9961539e+00   2.4667608e+00   2.9789931e+00   3.1135767e+00   3.1290144e+00   3.1869535e+00   3.2153103e+00   3.2444790e+00   3.2342566e+00   3.2196770e+00   3.1825257e+00   3.1756519e+00   3.1641167e+00   3.1029249e+00   3.0638180e+00   3.0722148e+00   3.0378712e+00   3.0204224e+00   3.0060934e+00   3.0055418e+00   3.0480770e+00   3.0895228e+00   3.1102231e+00   3.1852871e+00   3.2279582e+00   3.2866322e+00   3.3494503e+00   3.4647090e+00   3.5808738e+00   3.7200383e+00   3.8438603e+00   3.9685592e+00   4.0879766e+00   4.2158362e+00   4.3566525e+00   4.5115651e+00   4.6639069e+00   4.8229552e+00   4.9680666e+00   5.0935147e+00   5.1964790e+00   5.3025546e+00   5.4025424e+00   5.4938705e+00   5.5770072e+00   5.6651309e+00   5.7512920e+00   5.8276566e+00   5.9386387e+00   6.0534602e+00   6.1450852e+00   6.2774662e+00   6.4220103e+00   6.5713394e+00   6.7175603e+00   6.8477064e+00   6.9677762e+00   7.0322865e+00   7.0952327e+00
1.6601379e+00   4.4623985e+00   1.0374062e+01   1.7239613e+01   1.7131120e+01   1.8148770e+01   1.7480087e+01   1.6646553e+01   1.6426924e+01   1.6176445e+01   1.6075461e+01   1.6827279e+01   1.7661635e+01   1.4796643e+01   1.4742339e+01   1.4756798e+01   1.4597946e+01   1.4428519e+01   1.4308740e+01   1.4233760e+01   1.4253660e+01   1.4290877e+01   1.4597437e+01   1.6037434e+01   1.5093908e+01   1.4583705e+01   1.4483786e+01   1.4501428e+01   1.4491555e+01   1.4442080e+01   1.4437207e+01   1.4363681e+01   1.3942522e+01   1.3220478e+01   1.2672431e+01   1.2482493e+01   1.2457112e+01   1.2453236e+01   1.2460985e+01   1.2417668e+01   1.2366892e+01   1.2074531e+01   1.1507960e+01   1.0923075e+01   1.0586962e+01   1.0117183e+01   9.1739571e+00   8.0443197e+00   7.0222379e+00   6.4325847e+00   6.2632968e+00   6.3196792e+00   6.5727142e+00   6.9988972e+00   7.6234622e+00   8.0737989e+00   8.1757626e+00   8.0239843e+00   7.6011832e+00   7.1395080e+00   6.6358457e+00   6.3061996e+00   6.0839430e+00   5.8470829e+00   5.5813160e+00   5.3122156e+00   5.1362150e+00   4.9425510e+00   4.7680127e+00   4.5877947e+00   4.3817506e+00   3.9946759e+00   3.5783659e+00   3.1523359e+00   2.6419144e+00   2.0315485e+00   1.5220451e+00   1.3114851e+00   1.3026252e+00   1.3014233e+00   1.3002214e+00   1.2989099e+00   1.2978176e+00   1.2966157e+00   1.3225365e+00   1.4448471e+00   1.6304895e+00   2.0325282e+00   2.5859553e+00   2.9592515e+00   3.1187053e+00   3.1914592e+00   3.2449758e+00   3.2916886e+00   3.3072085e+00   3.2942917e+00   3.3036552e+00   3.2903957e+00   3.2771257e+00   3.2499407e+00   3.2414797e+00   3.2423898e+00   3.2137052e+00   3.1605415e+00   3.1322017e+00   3.1025404e+00   3.0918375e+00   3.0984557e+00   3.1014430e+00   3.1401747e+00   3.1924328e+00   3.2583996e+00   3.2888491e+00   3.3531278e+00   3.4713893e+00   3.6117843e+00   3.7376107e+00   3.8530564e+00   3.9832264e+00   4.1218742e+00   4.2488131e+00   4.3887243e+00   4.5266066e+00   4.6647972e+00   4.8071100e+00   4.9566810e+00   5.0766704e+00   5.1689916e+00   5.2510886e+00   5.3415333e+00   5.4335076e+00   5.5202929e+00   5.6111918e+00   5.7012549e+00   5.8099775e+00   5.9074551e+00   6.0168706e+00   6.1039071e+00   6.2214079e+00   6.3779193e+00   6.5066523e+00   6.6349117e+00   6.7485697e+00   6.7976269e+00   6.8524358e+00   6.9140084e+00
9.9986144e-01   2.8913630e+00   8.2571443e+00   1.6118594e+01   1.7058799e+01   1.7694388e+01   1.7200777e+01   1.6895554e+01   1.6887832e+01   1.7061776e+01   1.6085670e+01   1.8102790e+01   1.7706474e+01   1.5141723e+01   1.4484477e+01   1.4497718e+01   1.4499573e+01   1.4360986e+01   1.4214473e+01   1.4120835e+01   1.4170065e+01   1.4313720e+01   1.4203200e+01   1.5225619e+01   1.4410051e+01   1.4410224e+01   1.4355247e+01   1.4265499e+01   1.4331569e+01   1.4334987e+01   1.4306606e+01   1.4057508e+01   1.3437717e+01   1.2804816e+01   1.2421831e+01   1.2281359e+01   1.2249806e+01   1.2157490e+01   1.2021374e+01   1.1896923e+01   1.1800554e+01   1.1562113e+01   1.1162250e+01   1.0770586e+01   1.0491543e+01   9.9962268e+00   9.1313219e+00   8.1968198e+00   7.3185350e+00   6.7055584e+00   6.4562334e+00   6.4505049e+00   6.5818615e+00   6.8597458e+00   7.3536212e+00   7.9042744e+00   8.1785532e+00   8.0041843e+00   7.3962235e+00   6.8221586e+00   6.5673689e+00   6.4454467e+00   6.3470404e+00   6.1129303e+00   5.6667713e+00   5.1620665e+00   4.8587218e+00   4.6840648e+00   4.5656786e+00   4.4469148e+00   4.2300785e+00   3.8416100e+00   3.3607042e+00   2.9059057e+00   2.4937981e+00   1.7800107e+00   1.3092378e+00   1.3033526e+00   1.3027344e+00   1.3015327e+00   1.3003309e+00   1.2938076e+00   1.2979274e+00   1.3125873e+00   1.3064664e+00   1.3468608e+00   1.7099852e+00   2.2612650e+00   2.6835263e+00   3.0148272e+00   3.1825618e+00   3.2647002e+00   3.3127368e+00   3.3144806e+00   3.3105571e+00   3.3116893e+00   3.3106325e+00   3.3093451e+00   3.3080578e+00   3.3035467e+00   3.3054832e+00   3.3037563e+00   3.2993429e+00   3.2844649e+00   3.2505206e+00   3.2219222e+00   3.2040297e+00   3.1717672e+00   3.1669363e+00   3.1877730e+00   3.2049503e+00   3.2729100e+00   3.2950299e+00   3.3860835e+00   3.5086714e+00   3.6288777e+00   3.7577112e+00   3.8808391e+00   3.9927574e+00   4.1160999e+00   4.2528700e+00   4.3820392e+00   4.5089135e+00   4.6360316e+00   4.7752631e+00   4.8999874e+00   5.0026968e+00   5.0840390e+00   5.1708180e+00   5.2658454e+00   5.3448728e+00   5.4448855e+00   5.5471672e+00   5.6445981e+00   5.7557264e+00   5.8681984e+00   5.9633053e+00   6.0276120e+00   6.1365834e+00   6.2622236e+00   6.3764727e+00   6.4825172e+00   6.5593018e+00   6.6026931e+00   6.6490113e+00   6.7184524e+00
1.2340404e+00   2.5408203e+00   5.1700550e+00   1.4424834e+01   1.7199154e+01   1.7035607e+01   1.7696113e+01   1.7439801e+01   1.7011660e+01   1.6764425e+01   1.6020756e+01   1.6836579e+01   1.6167278e+01   1.5309599e+01   1.4653736e+01   1.4298498e+01   1.4407654e+01   1.4527439e+01   1.4383514e+01   1.4076198e+01   1.4158732e+01   1.4607625e+01   1.4385409e+01   1.4088653e+01   1.4059188e+01   1.4124749e+01   1.4198588e+01   1.4214245e+01   1.4039493e+01   1.4104555e+01   1.4154767e+01   1.3495971e+01   1.2739773e+01   1.2215334e+01   1.1865963e+01   1.1717199e+01   1.1642521e+01   1.1482202e+01   1.1249401e+01   1.1026287e+01   1.0876969e+01   1.0709968e+01   1.0546260e+01   1.0355378e+01   1.0066519e+01   9.6331780e+00   9.0434251e+00   8.4788837e+00   7.8093692e+00   7.0643134e+00   6.6050964e+00   6.5198940e+00   6.6380671e+00   6.8547320e+00   7.2485139e+00   7.7326177e+00   8.0224337e+00   7.7750776e+00   7.1979699e+00   6.7402333e+00   6.5906214e+00   6.5755334e+00   6.5670024e+00   6.3218679e+00   5.7541480e+00   5.0781587e+00   4.6372758e+00   4.5000201e+00   4.4787699e+00   4.4359203e+00   4.2743292e+00   3.8274888e+00   3.1969533e+00   2.6706335e+00   2.2634693e+00   1.8668707e+00   1.5584117e+00   1.3605887e+00   1.3056797e+00   1.3280306e+00   1.3239376e+00   1.4845712e+00   1.6954608e+00   6.0702512e-01   1.1859265e+00   1.4948490e+00   1.9436283e+00   2.3771969e+00   2.7516805e+00   3.1034860e+00   3.2580838e+00   3.3127104e+00   3.3158931e+00   3.3146060e+00   3.3100509e+00   3.3117474e+00   3.3107445e+00   3.3094574e+00   3.3081702e+00   3.3078226e+00   3.3055959e+00   3.3043088e+00   3.3030216e+00   3.2999485e+00   3.2998837e+00   3.2976297e+00   3.2918141e+00   3.2720287e+00   3.2612271e+00   3.2613408e+00   3.2754267e+00   3.2912873e+00   3.3009529e+00   3.3912711e+00   3.5155171e+00   3.6304085e+00   3.7456617e+00   3.8580966e+00   3.9716623e+00   4.0888396e+00   4.2172918e+00   4.3464577e+00   4.4599470e+00   4.5761907e+00   4.6805500e+00   4.7829447e+00   4.8901824e+00   4.9916681e+00   5.0808578e+00   5.1674595e+00   5.2635119e+00   5.3667308e+00   5.4765134e+00   5.5686085e+00   5.6493778e+00   5.7008729e+00   5.7478875e+00   5.8124213e+00   5.9275557e+00   6.0636590e+00   6.1808531e+00   6.2840065e+00   6.3402826e+00   6.3757286e+00   6.4256009e+00   6.4866764e+00
1.7239549e+00   2.5601418e+00   3.9960013e+00   7.4936196e+00   1.2581224e+01   1.5848612e+01   1.7005010e+01   1.7836265e+01   1.7557114e+01   1.6908760e+01   1.6329291e+01   1.6379196e+01   1.5414563e+01   1.5209641e+01   1.4866888e+01   1.4529825e+01   1.4223331e+01   1.4412770e+01   1.4421874e+01   1.4270289e+01   1.4102722e+01   1.4074403e+01   1.4167999e+01   1.3431359e+01   1.3464711e+01   1.3662015e+01   1.3784789e+01   1.4223657e+01   1.3694706e+01   1.4355043e+01   1.3802192e+01   1.2963953e+01   1.2341858e+01   1.1715747e+01   1.1285207e+01   1.1097432e+01   1.0999716e+01   1.0829069e+01   1.0553754e+01   1.0304878e+01   1.0055501e+01   9.8059520e+00   9.6851115e+00   9.5118514e+00   9.2789564e+00   9.0900745e+00   8.8849609e+00   8.6511814e+00   8.2219317e+00   7.4766499e+00   6.7785428e+00   6.5325057e+00   6.5880276e+00   6.7422855e+00   6.9643998e+00   7.2112942e+00   7.2949326e+00   7.1236514e+00   6.8657126e+00   6.6467185e+00   6.5164029e+00   6.4554319e+00   6.3860157e+00   6.0897956e+00   5.5400309e+00   4.9775237e+00   4.6256109e+00   4.5077347e+00   4.4820043e+00   4.4302990e+00   4.2802620e+00   3.7870175e+00   3.0804004e+00   2.5515726e+00   2.2785917e+00   2.2046491e+00   2.2135312e+00   1.9296273e+00   1.8589585e+00   2.1019475e+00   2.1618179e+00   1.8990261e+00  -2.0365360e-01  -5.5046921e-01   1.9036657e+00   1.7958717e+00   2.1034416e+00   2.4500623e+00   2.8209859e+00   3.1515288e+00   3.3002796e+00   3.3172823e+00   3.3160046e+00   3.3147176e+00   3.3114296e+00   3.3119695e+00   3.3108566e+00   3.3095696e+00   3.3082826e+00   3.3081067e+00   3.3057086e+00   3.3044216e+00   3.3031346e+00   3.3007248e+00   3.3004630e+00   3.2992737e+00   3.2979867e+00   3.2966997e+00   3.2942394e+00   3.2961672e+00   3.3063277e+00   3.3338811e+00   3.3991519e+00   3.5020298e+00   3.6194316e+00   3.7435454e+00   3.8525948e+00   3.9628138e+00   4.0589368e+00   4.1606482e+00   4.2513187e+00   4.3388870e+00   4.4474183e+00   4.5220409e+00   4.6004411e+00   4.7009193e+00   4.8166012e+00   4.9258346e+00   5.0096391e+00   5.1157425e+00   5.2196647e+00   5.2972141e+00   5.3559296e+00   5.3955755e+00   5.4186656e+00   5.4662933e+00   5.5110824e+00   5.5807705e+00   5.7057567e+00   5.8419390e+00   5.9272611e+00   6.0285938e+00   6.1081947e+00   6.1427875e+00   6.1915981e+00   6.2443080e+00
2.5522904e+00   2.7779597e+00   3.4407307e+00   4.0155967e+00   5.3174731e+00   8.7738397e+00   1.4297471e+01   1.6633804e+01   1.6852931e+01   1.6793047e+01   1.6578431e+01   1.6373437e+01   1.5673485e+01   1.5211376e+01   1.5056877e+01   1.4786252e+01   1.4579047e+01   1.4094614e+01   1.4157666e+01   1.3977752e+01   1.3547256e+01   1.3413528e+01   1.3878047e+01   1.3283324e+01   1.3090953e+01   1.3150133e+01   1.3264786e+01   1.3315284e+01   1.3467522e+01   1.3493347e+01   1.3138110e+01   1.2657523e+01   1.2320183e+01   1.1626419e+01   1.1188671e+01   1.1009317e+01   1.0780278e+01   1.0489922e+01   1.0301374e+01   1.0095368e+01   9.5544904e+00   9.1108792e+00   8.8648839e+00   8.6890394e+00   8.5624001e+00   8.5832685e+00   8.6694677e+00   8.6846419e+00   8.4474040e+00   7.7580844e+00   6.9762378e+00   6.5563629e+00   6.4917259e+00   6.5040651e+00   6.4638139e+00   6.3531293e+00   6.2471747e+00   6.2016237e+00   6.2117014e+00   6.1907035e+00   6.1159104e+00   5.9257089e+00   5.7149307e+00   5.4101740e+00   5.0825475e+00   4.8723246e+00   4.7618395e+00   4.6644782e+00   4.5817440e+00   4.4590120e+00   4.1752733e+00   3.6136960e+00   2.9383425e+00   2.5063247e+00   2.3321987e+00   2.3065790e+00   2.3054645e+00   2.2955059e+00   2.2294720e+00   1.6543489e+00   6.6769678e-01  -4.0458886e-01   7.1218723e-01   2.0474769e+00   2.2923849e+00   2.2336733e+00   2.3050528e+00   2.4980042e+00   2.7726313e+00   3.0417541e+00   3.1489481e+00   3.2277636e+00   3.2806549e+00   3.2936906e+00   3.3139627e+00   3.3172360e+00   3.3210909e+00   3.3203692e+00   3.3276352e+00   3.3341068e+00   3.3296114e+00   3.3234797e+00   3.3313900e+00   3.3246682e+00   3.3179538e+00   3.3168523e+00   3.3096819e+00   3.2989824e+00   3.2962796e+00   3.3336000e+00   3.3993818e+00   3.4701218e+00   3.5600138e+00   3.6671859e+00   3.7749427e+00   3.8865031e+00   3.9816249e+00   4.0695327e+00   4.1650140e+00   4.2379028e+00   4.3069805e+00   4.3946915e+00   4.4687278e+00   4.5207848e+00   4.6030270e+00   4.6905484e+00   4.7863000e+00   4.8839288e+00   4.9862864e+00   5.0524579e+00   5.0850993e+00   5.1079283e+00   5.1523127e+00   5.2049295e+00   5.2404037e+00   5.2931974e+00   5.3405521e+00   5.3649844e+00   5.4727345e+00   5.5951052e+00   5.6847114e+00   5.7582727e+00   5.8325054e+00   5.9324634e+00   5.9577340e+00   6.0345711e+00
2.9214657e+00   2.7869936e+00   2.2140299e+00   2.2925968e+00   2.7499263e+00   4.8485763e+00   8.3583816e+00   1.2962620e+01   1.5182031e+01   1.6167028e+01   1.6277999e+01   1.6379402e+01   1.6153788e+01   1.6224622e+01   1.5157909e+01   1.5009071e+01   1.4705633e+01   1.4487246e+01   1.4256083e+01   1.4033547e+01   1.3243114e+01   1.2931355e+01   1.3286070e+01   1.3233099e+01   1.2882033e+01   1.2825154e+01   1.2941523e+01   1.3081539e+01   1.3623883e+01   1.4503962e+01   1.3192038e+01   1.2821965e+01   1.2550416e+01   1.2210980e+01   1.1526717e+01   1.0934595e+01   1.0704719e+01   1.0363665e+01   1.0997998e+01   1.0426454e+01   9.5103954e+00   8.9547375e+00   8.5643288e+00   8.3358764e+00   8.2947739e+00   8.3249613e+00   8.4509361e+00   8.5985104e+00   8.3922845e+00   7.8517012e+00   7.1493048e+00   6.6651930e+00   6.4500915e+00   6.2784845e+00   5.9134863e+00   5.4274627e+00   5.1838116e+00   5.1896632e+00   5.2930807e+00   5.3407103e+00   5.2738527e+00   5.0700473e+00   4.8572425e+00   4.7072945e+00   4.6524068e+00   4.7191543e+00   4.8058898e+00   4.8125251e+00   4.6618263e+00   4.3897892e+00   3.8979851e+00   3.2578467e+00   2.7525765e+00   2.4619070e+00   2.3212851e+00   2.3067882e+00   2.3055734e+00   2.1917811e+00  -3.6152678e-02  -9.1148784e-01  -2.3889834e-01   1.6001419e+00   2.2923423e+00   2.2971657e+00   2.2973362e+00   2.3631674e+00   2.4460664e+00   2.5081486e+00   2.6078491e+00   2.6991673e+00   2.7439218e+00   2.8365041e+00   2.9286616e+00   3.0022311e+00   3.0776867e+00   3.1307974e+00   3.2069775e+00   3.2891192e+00   3.3527809e+00   3.4207330e+00   3.4348025e+00   3.4383431e+00   3.4804981e+00   3.4717391e+00   3.4238313e+00   3.3933941e+00   3.3902344e+00   3.3828322e+00   3.3827777e+00   3.4188502e+00   3.5215818e+00   3.6601115e+00   3.7109508e+00   3.8040313e+00   3.8886758e+00   3.9886281e+00   4.0680235e+00   4.1462535e+00   4.2398895e+00   4.3103833e+00   4.3854245e+00   4.4184282e+00   4.4758182e+00   4.5485429e+00   4.6139129e+00   4.6651034e+00   4.7317360e+00   4.7865230e+00   4.7997645e+00   4.8180886e+00   4.8719870e+00   4.9326529e+00   4.9798947e+00   5.0060489e+00   5.0750564e+00   5.0518367e+00   5.1139822e+00   5.1075880e+00   5.1998157e+00   5.3223290e+00   5.4026348e+00   5.4631660e+00   5.5433453e+00   5.6934452e+00   5.7517827e+00   5.8461251e+00
3.0084637e+00   2.5178612e+00   1.2040595e+00   4.8898437e-01   2.3705012e-01   5.4648768e-01   1.3423470e+00   3.2484097e+00   7.1418239e+00   9.9230233e+00   1.0634829e+01   1.4720473e+01   1.5873291e+01   1.5963522e+01   1.5677193e+01   1.5116889e+01   1.4715278e+01   1.4204215e+01   1.3903633e+01   1.3647898e+01   1.3587163e+01   1.2752962e+01   1.2702244e+01   1.2794308e+01   1.2656791e+01   1.2530572e+01   1.2175370e+01   1.2298553e+01   1.2681152e+01   1.2672400e+01   1.2728568e+01   1.2646627e+01   1.2812773e+01   1.3321161e+01   1.1820937e+01   1.0821955e+01   1.0503460e+01   1.0067712e+01   1.1062052e+01   1.0914344e+01   9.6749060e+00   8.9392395e+00   8.4908838e+00   8.2659236e+00   8.5410209e+00   8.4252751e+00   7.9569163e+00   8.3148087e+00   7.7993906e+00   7.7253521e+00   7.3762158e+00   6.7994452e+00   6.4774689e+00   6.1686702e+00   5.6203450e+00   5.0062217e+00   4.5978691e+00   4.4897107e+00   4.6273475e+00   4.6350451e+00   4.4492203e+00   4.2637026e+00   4.2048381e+00   4.2363706e+00   4.3649041e+00   4.5614197e+00   4.7443903e+00   4.7589150e+00   4.5870253e+00   4.1070749e+00   3.3852826e+00   2.8401804e+00   2.5789428e+00   2.4138059e+00   2.3127375e+00   2.3068832e+00   2.3056823e+00   1.2615919e+00  -1.0599427e+00   2.4762915e-01   1.7767813e+00   2.2955648e+00   2.2984766e+00   2.2972757e+00   2.2963253e+00   2.3346086e+00   2.4472108e+00   2.4863866e+00   2.4914847e+00   2.4589434e+00   2.4648606e+00   2.5113847e+00   2.5483791e+00   2.5900146e+00   2.6461677e+00   2.7386378e+00   2.8023474e+00   2.8529591e+00   2.9488034e+00   3.0010375e+00   3.0558199e+00   3.1491055e+00   3.2348304e+00   3.2618660e+00   3.3305658e+00   3.4087602e+00   3.4811209e+00   3.5344594e+00   3.5452805e+00   3.5865160e+00   3.6869263e+00   3.7066142e+00   3.7922907e+00   3.8571599e+00   3.9268775e+00   3.9839020e+00   4.0479747e+00   4.1098712e+00   4.1814009e+00   4.2667137e+00   4.3380642e+00   4.3518818e+00   4.3949496e+00   4.4331347e+00   4.4826508e+00   4.5009118e+00   4.5208560e+00   4.5538692e+00   4.5584154e+00   4.5991927e+00   4.6312640e+00   4.6772342e+00   4.6956115e+00   4.7398648e+00   4.7636446e+00   4.7938665e+00   4.8184915e+00   4.8150199e+00   4.8812050e+00   4.9984161e+00   5.0633406e+00   5.1702892e+00   5.2619998e+00   5.4057883e+00   5.5167473e+00   5.6024607e+00
3.0163290e+00   9.6443357e-01  -1.0636158e+00  -1.3304853e+00  -1.3828588e+00  -1.4358594e+00  -9.3795504e-01   6.1953943e-03   8.4646265e-01   1.1673443e+00   3.6122591e+00   7.4584355e+00   1.4488699e+01   1.5613257e+01   1.5347521e+01   1.5144793e+01   1.4472705e+01   1.4060113e+01   1.3768123e+01   1.3740920e+01   1.3386047e+01   1.2631406e+01   1.2287766e+01   1.2340281e+01   1.2537016e+01   1.3059689e+01   1.1981409e+01   1.1826707e+01   1.1893149e+01   1.2054867e+01   1.2245957e+01   1.2223219e+01   1.2066551e+01   1.2742233e+01   1.1458185e+01   1.1335013e+01   1.1021074e+01   9.9226574e+00   9.7002549e+00   9.8606057e+00   9.0386532e+00   8.7794368e+00   8.2323050e+00   8.1326301e+00   8.8629487e+00   8.2919265e+00   7.6620727e+00   7.3740291e+00   7.4152821e+00   7.6424739e+00   7.4785763e+00   6.8630218e+00   6.4575020e+00   6.0768738e+00   5.6208092e+00   5.2587009e+00   4.5825304e+00   4.1429845e+00   4.3662005e+00   4.3440959e+00   3.9075818e+00   3.6412285e+00   3.6959902e+00   3.8928765e+00   3.9964305e+00   4.1894395e+00   4.4659363e+00   4.5471075e+00   4.3372482e+00   3.7158952e+00   3.0128209e+00   2.6103268e+00   2.5011989e+00   2.3780092e+00   2.3098987e+00   2.3069919e+00   2.3039460e+00   3.8227377e-01  -1.2738233e+00   6.0003274e-01   1.8789567e+00   2.2958594e+00   2.2985865e+00   2.2973857e+00   2.3010627e+00   2.3551869e+00   2.3966292e+00   2.4251858e+00   2.4211367e+00   2.4011511e+00   2.3630707e+00   2.3730170e+00   2.3850377e+00   2.3866731e+00   2.4188686e+00   2.4791051e+00   2.4867186e+00   2.4884746e+00   2.5350908e+00   2.5608408e+00   2.6116694e+00   2.6683079e+00   2.7593981e+00   2.8420843e+00   2.9124486e+00   3.0417859e+00   3.1398179e+00   3.2896531e+00   3.4730339e+00   3.5736374e+00   3.6532363e+00   3.7185966e+00   3.7568385e+00   3.8018321e+00   3.8480760e+00   3.9011066e+00   3.9601492e+00   4.0341466e+00   4.0946325e+00   4.1132396e+00   4.1634965e+00   4.1704042e+00   4.1878421e+00   4.2128128e+00   4.2046956e+00   4.2442283e+00   4.2444026e+00   4.2432571e+00   4.2372718e+00   4.2729928e+00   4.2571119e+00   4.2853174e+00   4.3365853e+00   4.3944462e+00   4.4498103e+00   4.4706735e+00   4.4961857e+00   4.5229039e+00   4.5539989e+00   4.6830916e+00   4.7417435e+00   4.8477828e+00   4.9508853e+00   5.0933207e+00   5.2297062e+00   5.3258814e+00
1.4389330e+00  -1.2581495e+00  -1.4423739e+00  -1.5770314e+00  -1.6364545e+00  -1.5652661e+00  -1.1461295e+00  -7.6640650e-01  -1.4749349e+00  -9.2511531e-01   8.4472303e-01   3.7916076e+00   1.4113977e+01   1.5377279e+01   1.5320048e+01   1.4892942e+01   1.4576773e+01   1.4063621e+01   1.3665618e+01   1.3545717e+01   1.3169815e+01   1.2679440e+01   1.2387561e+01   1.1854090e+01   1.1780023e+01   1.1675612e+01   1.1728151e+01   1.1619936e+01   1.1434514e+01   1.1481866e+01   1.1539599e+01   1.1673233e+01   1.1477531e+01   1.1489079e+01   1.1984545e+01   1.1716910e+01   1.1222852e+01   9.9473581e+00   9.3360990e+00   8.9281414e+00   9.0549839e+00   9.3955933e+00   8.2665070e+00   7.5304026e+00   7.4468947e+00   7.5445742e+00   7.2704966e+00   7.1881105e+00   7.0509951e+00   7.1275616e+00   7.4231131e+00   6.8351342e+00   6.1864866e+00   6.0022467e+00   5.7817897e+00   5.4940158e+00   4.7515170e+00   3.9994175e+00   3.9372618e+00   3.7008393e+00   3.7893196e+00   3.7443430e+00   3.5642474e+00   3.7391553e+00   3.6758575e+00   3.5746728e+00   3.9178698e+00   4.2931463e+00   3.9453745e+00   3.3114964e+00   2.9740930e+00   2.7432779e+00   2.6195148e+00   2.4868447e+00   2.3577050e+00   2.3133885e+00   2.3039703e+00   1.2069964e+00  -1.6275507e+00  -1.0858071e+00   4.2207662e-01   2.2694205e+00   2.2986963e+00   2.2994923e+00   2.3309945e+00   2.3778756e+00   2.3577707e+00   2.3253472e+00   2.3243886e+00   2.3217482e+00   2.3264201e+00   2.3167445e+00   2.3220260e+00   2.3351488e+00   2.3475432e+00   2.3603429e+00   2.3385361e+00   2.3247295e+00   2.3372457e+00   2.3839168e+00   2.4095205e+00   2.4584648e+00   2.5387443e+00   2.6313336e+00   2.7115906e+00   2.7682485e+00   2.7539848e+00   2.7718438e+00   2.9071766e+00   3.0270186e+00   3.1797628e+00   3.3874816e+00   3.5247869e+00   3.6217486e+00   3.7330786e+00   3.8021741e+00   3.8606857e+00   3.9044861e+00   3.9265814e+00   3.9100287e+00   3.9069887e+00   3.8927892e+00   3.8767572e+00   3.8649702e+00   3.8825685e+00   3.9039114e+00   3.8964457e+00   3.8794456e+00   3.8716353e+00   3.8707155e+00   3.9076093e+00   3.9267263e+00   3.9640791e+00   4.0497500e+00   4.1125616e+00   4.1248847e+00   4.1534999e+00   4.1441991e+00   4.2098791e+00   4.3543630e+00   4.4227490e+00   4.4988290e+00   4.6055487e+00   4.7727083e+00   4.8886747e+00   5.0270490e+00
-1.1890088e+00   5.8586847e-01  -4.8171216e-01  -1.4660781e+00  -1.6501077e+00  -3.2805279e-01  -7.5631117e-01  -9.0228822e-01  -1.7193029e+00  -1.0649904e+00   1.2711417e+00   8.1355272e+00   1.5293499e+01   1.5112750e+01   1.4851134e+01   1.4553536e+01   1.4275108e+01   1.4066564e+01   1.5108062e+01   1.4257026e+01   1.4628173e+01   1.3911172e+01   1.2221513e+01   1.1666127e+01   1.1264785e+01   1.1364079e+01   1.1734622e+01   1.1805836e+01   1.1461127e+01   1.1037258e+01   1.1005958e+01   1.1014526e+01   1.1153763e+01   1.1224593e+01   1.1064722e+01   1.0966700e+01   1.0473445e+01   9.5774985e+00   9.0529563e+00   8.4434430e+00   8.9515975e+00   1.1184194e+01   9.2413628e+00   7.3290423e+00   6.8345142e+00   6.8833906e+00   7.6734807e+00   9.1396991e+00   6.9330864e+00   6.4090344e+00   6.5747070e+00   6.5185965e+00   6.3796550e+00   5.3036533e+00   5.2767446e+00   5.3849664e+00   4.4455825e+00   3.8913810e+00   3.7755688e+00   3.5134151e+00   3.8034883e+00   4.6177140e+00   3.9049674e+00   3.6534153e+00   3.5667959e+00   3.4246792e+00   3.6066164e+00   4.0995060e+00   3.4376310e+00   3.1297008e+00   3.2395097e+00   3.1481423e+00   2.8640480e+00   2.7682879e+00   2.6851083e+00   2.6147327e+00   2.4850310e+00   2.2428119e+00  -2.7410942e-01  -1.7692729e+00  -4.1685844e-01   2.2473038e+00   2.2855766e+00   2.1938162e+00   2.2255030e+00   2.3232274e+00   2.3174342e+00   2.2928313e+00   2.2916034e+00   2.2904029e+00   2.2899092e+00   2.2886250e+00   2.2874870e+00   2.2905029e+00   2.2887365e+00   2.3000384e+00   2.2916594e+00   2.2793815e+00   2.2892538e+00   2.2961521e+00   2.3148346e+00   2.3798375e+00   2.4895836e+00   2.6061355e+00   2.6824839e+00   2.6990244e+00   2.7043173e+00   2.6713623e+00   2.5637226e+00   2.5066163e+00   2.5881662e+00   2.7842535e+00   2.9049590e+00   2.9246605e+00   3.1889541e+00   3.4818052e+00   3.6285255e+00   3.6842239e+00   3.6862222e+00   3.6539991e+00   3.6211979e+00   3.6212682e+00   3.5979362e+00   3.6070184e+00   3.6418499e+00   3.6283311e+00   3.6071396e+00   3.5911383e+00   3.5876976e+00   3.5995390e+00   3.6327165e+00   3.6394543e+00   3.6843672e+00   3.7579279e+00   3.7671181e+00   3.7449189e+00   3.7788832e+00   3.8003182e+00   3.9000896e+00   3.9989818e+00   4.0798809e+00   4.1908089e+00   4.2899952e+00   4.4416805e+00   4.5608061e+00   4.6816556e+00
-1.2898476e+00  -5.5664235e-02  -8.1730107e-01  -6.3138676e-01  -1.6776979e+00  -1.7896893e+00  -1.7103637e+00  -1.7047346e+00  -1.7196534e+00  -7.9758440e-01   1.9788486e+00   8.1048307e+00   1.0877223e+01   1.0423847e+01   9.0631830e+00   1.0184639e+01   1.1627789e+01   1.1985649e+01   1.3024885e+01   1.3206172e+01   1.2890648e+01   1.2243311e+01   1.1544667e+01   1.1248074e+01   1.1302035e+01   1.0759134e+01   1.1090434e+01   1.1136318e+01   1.0770196e+01   1.0780329e+01   1.0716452e+01   1.0614561e+01   1.0697744e+01   1.0875350e+01   1.0617019e+01   1.0554608e+01   1.0066109e+01   9.4797804e+00   8.8390467e+00   8.1791071e+00   7.6852530e+00   8.6691856e+00   7.3032814e+00   6.8126134e+00   6.4838002e+00   6.0819304e+00   6.6818830e+00   7.4521801e+00   6.1795973e+00   5.9472292e+00   6.1950307e+00   6.5433272e+00   5.4313160e+00   4.6451718e+00   4.3898755e+00   4.2694222e+00   4.3964059e+00   4.9410976e+00   4.7784221e+00   3.8364703e+00   3.6118801e+00   3.6246271e+00   3.5405295e+00   3.6668139e+00   3.5777599e+00   3.8491479e+00   3.7389451e+00   3.7376351e+00   3.5510353e+00   3.2575261e+00   3.1906731e+00   3.2140420e+00   3.0448954e+00   2.9812229e+00   3.0570048e+00   3.0542172e+00   3.1509336e+00   2.2401749e+00   1.2835502e+00  -8.8264188e-01   3.5681711e-01   2.4081330e+00   2.1333208e+00   2.0545417e+00   1.9889777e+00   2.2571144e+00   2.3008766e+00   2.2928356e+00   2.2917142e+00   2.2905139e+00   2.2893129e+00   2.2880700e+00   2.2867846e+00   2.2854987e+00   2.2842128e+00   2.2829270e+00   2.2816411e+00   2.2803552e+00   2.2794163e+00   2.2783262e+00   2.2772275e+00   2.2870503e+00   2.3909306e+00   2.5618463e+00   2.6257996e+00   2.5482639e+00   2.5447163e+00   2.6206891e+00   2.5635722e+00   2.3546209e+00   2.2998986e+00   2.2700726e+00   2.1586445e+00   2.3233665e+00   2.4592691e+00   2.7551676e+00   3.0028349e+00   3.1380502e+00   3.2613892e+00   3.3963254e+00   3.5441773e+00   3.5808839e+00   3.5511597e+00   3.5210063e+00   3.5066961e+00   3.4887249e+00   3.4591829e+00   3.4487053e+00   3.4316884e+00   3.4219007e+00   3.3990143e+00   3.4537695e+00   3.5601369e+00   3.4824033e+00   3.4241927e+00   3.3992635e+00   3.4276695e+00   3.5162415e+00   3.6149817e+00   3.7015642e+00   3.8129106e+00   3.9025124e+00   4.0119778e+00   4.1288660e+00   4.2404473e+00   4.3546316e+00
-1.5435045e+00  -1.3325469e+00  -1.4814048e+00  -1.4019555e+00  -1.6977665e+00  -1.7708690e+00  -1.8004375e+00  -1.8335675e+00  -1.6077830e+00  -5.5125507e-02   7.8755789e-01   1.3428168e+00   1.5108724e+00   1.1661003e+00   9.1369261e-01   9.4411445e-01   1.4376109e+00   1.9292887e+00   3.1653136e+00   6.1295318e+00   8.1870177e+00   8.6710212e+00   9.0414354e+00   9.5103948e+00   1.0420588e+01   1.0100359e+01   1.0280710e+01   1.0416598e+01   1.0657262e+01   1.0808597e+01   1.0603024e+01   1.0431341e+01   1.0369666e+01   1.0463121e+01   1.0726227e+01   1.0206920e+01   9.9072760e+00   1.0172759e+01   9.0664919e+00   8.1100500e+00   7.5414746e+00   7.0919745e+00   6.8730505e+00   6.4418188e+00   6.0883249e+00   5.7303535e+00   5.3426263e+00   5.6062779e+00   5.6222255e+00   5.5154365e+00   5.2962882e+00   4.9340481e+00   4.5732297e+00   4.3556027e+00   4.5033127e+00   4.2512534e+00   4.4788208e+00   4.8940729e+00   5.2850509e+00   4.4529193e+00   3.5063765e+00   3.4643039e+00   3.4801629e+00   3.6801350e+00   3.8572761e+00   3.8531654e+00   3.8864320e+00   3.8874967e+00   3.8051899e+00   3.6099884e+00   3.2756794e+00   3.1810468e+00   3.1731504e+00   3.1124974e+00   2.9883719e+00   2.9855812e+00   3.5080825e+00   2.5435408e+00   1.0682533e+00  -5.5318410e-01   1.0230850e+00   2.4091403e+00   2.4132229e+00   2.4834960e+00   2.0366380e+00   1.9742045e+00   1.9335532e+00   1.5268495e+00   1.4864237e+00   1.8075309e+00   1.8119241e+00   1.8134811e+00   1.8063596e+00   1.8089272e+00   1.7888494e+00   2.0271976e+00   2.2381629e+00   2.2556192e+00   2.2787466e+00   2.2778986e+00   2.2766129e+00   2.2753272e+00   2.2936747e+00   2.4839948e+00   2.6242658e+00   2.5932253e+00   2.5253181e+00   2.4815763e+00   2.4289258e+00   2.2982792e+00   1.9128534e+00  -2.0662902e-01  -2.0878286e+00   3.8627663e-01   2.2058047e+00   2.3020853e+00   2.4326707e+00   2.5863942e+00   2.7882898e+00   3.1558094e+00   3.6686853e+00   3.9074922e+00   3.8754958e+00   3.7561758e+00   3.6486743e+00   3.6923451e+00   3.7364711e+00   3.7173085e+00   3.6283546e+00   3.5463119e+00   3.4812224e+00   3.4061363e+00   3.3199566e+00   3.2261012e+00   3.1902210e+00   3.1838371e+00   3.1979958e+00   3.2784347e+00   3.3686725e+00   3.4484553e+00   3.5496452e+00   3.6459368e+00   3.7373934e+00   3.8499141e+00   3.9504763e+00   4.1044894e+00
-2.3482871e+00  -1.6333583e+00  -1.4936316e+00  -1.5480332e+00  -1.7035992e+00  -1.8951653e+00  -1.9996758e+00  -2.0432848e+00  -1.9313816e+00  -1.6104428e+00  -1.3323344e+00  -1.1895279e+00  -1.1123950e+00  -1.2041790e+00  -1.4038106e+00  -1.2530534e+00  -1.2564192e+00  -1.2270833e+00  -9.3488285e-01  -5.4519969e-01  -1.6108926e-01   9.7026489e-01   1.8110233e+00   3.0284545e+00   4.0060266e+00   6.1246351e+00   1.0772683e+01   1.0635805e+01   1.0675948e+01   1.0866406e+01   1.0640782e+01   1.0407302e+01   1.0202697e+01   1.0597424e+01   1.0047097e+01   9.5486373e+00   9.5651577e+00   9.2241500e+00   8.7040892e+00   8.7737648e+00   8.9725662e+00   7.2659071e+00   6.2968349e+00   6.0741014e+00   5.6247698e+00   5.4072009e+00   5.1736053e+00   5.1781489e+00   5.2829646e+00   5.1880019e+00   4.9972370e+00   4.5040752e+00   4.6835739e+00   4.5943145e+00   4.2597098e+00   4.1884733e+00   4.2354469e+00   4.1318860e+00   4.1905306e+00   3.8699157e+00   3.7051248e+00   3.7746892e+00   3.8034354e+00   3.8226306e+00   3.9191071e+00   4.0910986e+00   4.4229939e+00   4.5197231e+00   3.8824170e+00   3.7006091e+00   3.5146649e+00   3.4287370e+00   3.3594409e+00   3.2517527e+00   3.1811591e+00   3.5884059e+00   4.5594540e+00   2.8497457e+00   3.0744334e-01  -1.2747299e+00  -5.7669902e-01   6.6831384e-01  -7.1302696e-02  -2.7440731e-01   3.2227044e-01   3.4437514e-01   3.4321855e-01  -6.1233995e-01  -1.3241981e+00  -1.3484475e+00  -1.3546864e+00  -1.3476988e+00  -1.3450491e+00  -1.2819114e+00  -1.2301056e+00  -6.2699310e-01  -2.4542071e-01   4.2942307e-01   9.7676650e-01   1.3707733e+00   1.4730057e+00   2.1500246e+00   2.2748577e+00   2.4234442e+00   2.8178755e+00   3.0679571e+00   3.0231477e+00   2.6501664e+00   2.3105984e+00   1.5600957e+00  -1.5091230e+00  -3.6167350e+00  -4.0166216e+00  -2.6748790e+00  -1.8311002e-01   1.9508183e+00   2.2608861e+00   2.3251126e+00   2.5811154e+00   3.1719034e+00   3.8794990e+00   4.2247569e+00   4.2437947e+00   4.1662055e+00   4.1283485e+00   4.1575965e+00   4.2031068e+00   4.1773391e+00   4.0898847e+00   3.9863269e+00   3.8056172e+00   3.4984945e+00   3.1600101e+00   3.0645344e+00   3.0230237e+00   3.0172783e+00   3.0623173e+00   3.0930296e+00   3.1700910e+00   3.2408324e+00   3.3256998e+00   3.3928877e+00   3.4690965e+00   3.5612647e+00   3.7223374e+00   3.9638205e+00
-3.3631990e+00  -2.1074614e+00  -1.3593888e+00  -1.5303726e+00  -1.8270781e+00  -2.1715415e+00  -2.3831074e+00  -2.4367824e+00  -2.3850025e+00  -2.2530802e+00  -2.0693881e+00  -1.9595306e+00  -1.8615681e+00  -1.8102466e+00  -1.4311782e+00  -5.6323898e-01  -1.3762271e+00  -1.5776400e+00  -1.5161832e+00  -1.3854178e+00  -1.4283587e+00  -1.0493420e+00  -9.3354707e-01  -2.3425140e-01  -8.7723958e-01   1.1965951e+00   3.5606088e+00   9.7182699e+00   1.0263303e+01   1.0270168e+01   1.0248131e+01   1.1034886e+01   1.0665246e+01   1.0009061e+01   1.0306916e+01   9.1420179e+00   8.6446007e+00   8.3721372e+00   8.2410965e+00   9.1893795e+00   1.0263059e+01   7.2592422e+00   5.9094810e+00   5.5041642e+00   5.3355574e+00   5.6332312e+00   5.4528396e+00   4.6556487e+00   4.8492288e+00   4.7732325e+00   4.5842111e+00   4.4606541e+00   4.1238156e+00   4.0100704e+00   3.9490657e+00   3.8985174e+00   3.7630798e+00   3.5704075e+00   3.6078145e+00   3.7987207e+00   3.8663233e+00   3.8452796e+00   3.8045237e+00   3.9087166e+00   3.9455823e+00   3.9376068e+00   4.0760133e+00   4.2580168e+00   3.8929306e+00   3.6453996e+00   3.3896835e+00   3.5747187e+00   3.7657605e+00   3.8064487e+00   4.1930482e+00   4.0691956e+00   2.5731250e+00  -2.1023669e-01  -1.3893317e+00  -1.5538437e+00  -1.6423925e+00  -1.3588333e+00  -1.5512059e+00  -1.4486040e+00  -1.3558610e+00  -1.3973388e+00  -1.4194531e+00  -1.5507219e+00  -1.7393860e+00  -1.8435319e+00  -1.8318431e+00  -1.7559245e+00  -1.5428614e+00  -1.4053827e+00  -1.5796290e+00  -1.6878066e+00  -1.7125336e+00  -1.6803007e+00  -1.4497995e+00  -1.2069399e+00  -1.1139888e+00  -8.5274606e-02   1.6720033e+00   2.2957550e+00   2.7769642e+00   3.7534422e+00   3.7712396e+00   2.8350477e+00   1.1520457e+00  -2.3616443e+00  -3.8796067e+00  -4.1831789e+00  -4.2297210e+00  -4.3152129e+00  -4.2069392e+00  -1.6953972e+00   1.2048324e+00   2.2432444e+00   2.5666311e+00   3.4177146e+00   4.0259001e+00   4.2300110e+00   4.2773525e+00   4.2696599e+00   4.2642854e+00   4.2635479e+00   4.3330841e+00   4.3904052e+00   4.3798493e+00   4.2854125e+00   4.0086566e+00   3.5761914e+00   3.0841599e+00   2.8548199e+00   2.8476961e+00   2.8735588e+00   2.8776020e+00   2.9564130e+00   3.0085272e+00   3.0786711e+00   3.1499755e+00   3.2173250e+00   3.2939762e+00   3.4106909e+00   3.6475096e+00   3.9230052e+00
-4.5221940e+00  -2.6079465e+00  -1.2906838e+00  -7.9051579e-01  -1.4691052e+00  -2.7851753e+00  -2.9984695e+00  -3.0419004e+00  -2.9483831e+00  -2.7346195e+00  -2.4470707e+00  -2.1693216e+00  -1.9329251e+00  -1.7585838e+00  -9.7250141e-01  -4.0731861e-01  -8.8221957e-01  -1.4039818e+00  -9.4457269e-01  -1.0179262e+00  -1.1195762e+00  -7.2065991e-01  -1.2506512e+00  -1.1829724e+00  -1.2821273e+00  -1.2342933e+00   7.6303093e-02   2.7896451e+00   5.7405415e+00   9.0612848e+00   1.0019156e+01   1.0961855e+01   1.1054706e+01   9.9686952e+00   9.1834571e+00   8.7938955e+00   8.4123254e+00   8.5320333e+00   8.0895753e+00   8.0309892e+00   8.4539525e+00   6.7898262e+00   6.2858574e+00   5.2795400e+00   4.7161157e+00   5.0065550e+00   4.4956570e+00   4.4483812e+00   4.3756070e+00   4.4996578e+00   4.8577354e+00   4.8975230e+00   4.0567159e+00   3.5555981e+00   3.4770964e+00   3.3873843e+00   3.4795559e+00   3.6897823e+00   3.7936920e+00   3.9675893e+00   4.0432763e+00   3.9639887e+00   4.0398372e+00   3.9385797e+00   3.9273326e+00   3.8893173e+00   3.8372613e+00   3.9478073e+00   3.7820782e+00   3.6494240e+00   3.4683888e+00   3.8704315e+00   4.4722259e+00   4.2376644e+00   3.2208909e+00   2.4754260e-01  -8.0027655e-01  -1.3675177e+00  -1.5459392e+00  -1.5634582e+00  -1.7448027e+00  -1.7721105e+00  -1.6287487e+00  -1.4843633e+00  -1.4850286e+00  -1.5669592e+00  -1.6621388e+00  -1.6509399e+00  -1.7480463e+00  -1.8416034e+00  -1.8392400e+00  -1.7047840e+00  -1.3372000e+00  -9.8010704e-01  -1.4950630e+00  -1.7685141e+00  -1.8945851e+00  -1.9367192e+00  -1.9224133e+00  -1.8950627e+00  -1.8158757e+00  -1.7240494e+00  -7.8307769e-01   1.1194668e+00   1.9349046e+00   3.8214202e+00   3.7984443e+00   1.0712297e+00  -3.3631605e+00  -4.1429310e+00  -4.2907965e+00  -4.4593851e+00  -4.5642571e+00  -4.6757746e+00  -4.7047189e+00  -3.5260963e+00  -2.2712457e+00   4.3020100e-01   2.9444072e+00   3.8101425e+00   3.9838223e+00   3.8933799e+00   4.0029409e+00   4.0117148e+00   3.8624443e+00   3.8841564e+00   4.0740735e+00   4.1958377e+00   4.3153716e+00   4.3559238e+00   4.1591364e+00   3.7122593e+00   3.1130244e+00   2.6939649e+00   2.5618692e+00   2.6025976e+00   2.6960320e+00   2.7829774e+00   2.8643246e+00   2.9458789e+00   3.0286349e+00   3.1264239e+00   3.2404358e+00   3.3974535e+00   3.6312712e+00   3.8767676e+00
