ncols     186
nrows     32
xllcorner -95.249999505
yllcorner -24.249999285
cellsize  1.666666700000000e-01
nodata_value       -9999
-4.1462445e+03  -4.1482522e+03  -4.2672480e+03  -4.2514964e+03  -3.9959891e+03  -4.0189871e+03  -4.1327521e+03  -4.0752438e+03  -4.0617479e+03  -4.0235019e+03  -4.0942516e+03  -4.1369972e+03  -4.0737549e+03  -4.0837547e+03  -4.1410046e+03  -4.2147556e+03  -4.2600025e+03  -4.2855044e+03  -4.2637517e+03  -4.1887438e+03  -4.2174949e+03  -4.2892537e+03  -4.3152528e+03  -4.3305049e+03  -4.3330074e+03  -4.3532522e+03  -4.3405034e+03  -4.2902516e+03  -4.1634987e+03  -4.0449880e+03  -4.1257464e+03  -4.1580164e+03  -4.2765131e+03  -4.4007622e+03  -4.3570042e+03  -4.3962455e+03  -4.3577464e+03  -4.2519985e+03  -4.2282465e+03  -4.2147496e+03  -4.2190076e+03  -4.2585045e+03  -4.2862544e+03  -4.3292535e+03  -4.3899968e+03  -4.3712441e+03  -4.3472527e+03  -4.3767588e+03  -4.3792544e+03  -4.3705022e+03  -4.3667532e+03  -4.3725013e+03  -4.3840033e+03  -4.3860033e+03  -4.3950003e+03  -4.4097506e+03  -4.4224990e+03  -4.4409981e+03  -4.4507492e+03  -4.4944959e+03  -4.5054964e+03  -4.4970003e+03  -4.4974983e+03  -4.4682490e+03  -4.4517497e+03  -4.4477484e+03  -4.4327496e+03  -4.4185018e+03  -4.4122521e+03  -4.4020019e+03  -4.3960013e+03  -4.3850007e+03  -4.3737496e+03  -4.3694999e+03  -4.3670004e+03  -4.3527500e+03  -4.3460005e+03  -4.3557530e+03  -4.3300056e+03  -4.2517555e+03  -4.2657548e+03  -4.2357474e+03  -4.1627577e+03  -4.1842710e+03  -4.0975173e+03  -4.0250091e+03  -3.8935064e+03  -3.8200168e+03  -3.8462714e+03  -3.7250073e+03  -3.5989940e+03  -3.4629936e+03  -3.3859962e+03  -3.2707629e+03  -3.1747653e+03  -3.2842462e+03  -3.3962469e+03  -3.6014935e+03  -3.8577368e+03  -3.9634907e+03  -4.0545001e+03  -4.1982566e+03  -4.2422476e+03  -4.2499984e+03  -4.3302535e+03  -4.3312576e+03  -4.3435022e+03  -4.4444975e+03  -4.5199953e+03  -4.5074968e+03  -4.4887460e+03  -4.5577383e+03  -4.5467437e+03  -4.5024982e+03  -4.6160107e+03  -4.6215306e+03  -4.4105232e+03  -4.3217423e+03  -4.4937139e+03  -4.6494805e+03  -4.6732523e+03  -4.7072422e+03  -4.7512443e+03  -4.8705003e+03  -4.9207526e+03  -4.8167504e+03  -4.7569941e+03  -4.7127402e+03  -4.6359951e+03  -4.6065149e+03  -4.5257594e+03  -4.5039991e+03  -4.5100114e+03  -4.3205070e+03  -4.1732465e+03  -4.1215038e+03  -4.1345352e+03  -4.4820345e+03  -5.1780220e+03  -6.0407898e+03  -6.5392298e+03  -5.8911502e+03  -4.5658925e+03  -3.3582001e+03  -2.5612656e+03  -2.1047732e+03  -1.6222654e+03  -1.3135160e+03  -1.1365484e+03  -5.0028124e+02   3.2153472e+02   9.3004394e+02   1.1475193e+03   1.5582589e+03   2.6405102e+03   3.4854974e+03   3.9309991e+03   4.4437562e+03   4.7947500e+03   4.6369584e+03   4.1576926e+03   3.7694819e+03   3.6499979e+03   3.6450009e+03   3.6660024e+03   3.6872535e+03   3.7050029e+03   3.7267510e+03   3.7207502e+03   3.6912502e+03   3.6804999e+03   3.9660236e+03   4.2335097e+03   4.3297677e+03   4.2027808e+03   3.9964958e+03   4.0002698e+03   3.7690438e+03   3.4980122e+03   3.2122431e+03   2.8597285e+03   2.7747096e+03   2.8324721e+03   2.7057283e+03   2.2992280e+03   2.1504936e+03
-4.0990135e+03  -4.1162532e+03  -4.2020130e+03  -4.1925136e+03  -4.1182403e+03  -4.0827522e+03  -4.0012702e+03  -3.9830218e+03  -4.0130104e+03  -4.0032515e+03  -4.1079960e+03  -4.1914936e+03  -4.0959913e+03  -4.1194892e+03  -4.1177493e+03  -4.1622533e+03  -4.2462498e+03  -4.2367539e+03  -4.2287542e+03  -4.2417473e+03  -4.2709961e+03  -4.2667500e+03  -4.2882517e+03  -4.2810035e+03  -4.2697533e+03  -4.3095052e+03  -4.2875055e+03  -4.2355077e+03  -4.0570193e+03  -3.9530277e+03  -4.0942590e+03  -4.1517345e+03  -4.2332441e+03  -4.3314994e+03  -4.3257511e+03  -4.3962545e+03  -4.3297584e+03  -4.2030098e+03  -4.2252540e+03  -4.2334972e+03  -4.2012453e+03  -4.2147528e+03  -4.2455025e+03  -4.2720062e+03  -4.3345126e+03  -4.3347621e+03  -4.2980056e+03  -4.2980045e+03  -4.3132567e+03  -4.3255054e+03  -4.3362519e+03  -4.3540019e+03  -4.3510023e+03  -4.3582514e+03  -4.3875010e+03  -4.4060000e+03  -4.4245007e+03  -4.4607486e+03  -4.4797459e+03  -4.5035026e+03  -4.5352486e+03  -4.5187460e+03  -4.5017510e+03  -4.4774994e+03  -4.4482509e+03  -4.4450021e+03  -4.4197526e+03  -4.4104996e+03  -4.4052491e+03  -4.3840011e+03  -4.3810013e+03  -4.3760008e+03  -4.3710008e+03  -4.3675004e+03  -4.3657498e+03  -4.3612485e+03  -4.3492489e+03  -4.3389998e+03  -4.3259950e+03  -4.2819893e+03  -4.2297512e+03  -4.1882606e+03  -4.1065018e+03  -4.0749973e+03  -3.9590060e+03  -3.8845146e+03  -3.7560168e+03  -3.5922716e+03  -3.6195168e+03  -3.5962644e+03  -3.4582799e+03  -3.2725387e+03  -3.1575425e+03  -3.1442584e+03  -3.2564707e+03  -3.4187311e+03  -3.5294805e+03  -3.7309847e+03  -3.8680116e+03  -3.9105184e+03  -4.0535001e+03  -4.1687483e+03  -4.2819957e+03  -4.2927444e+03  -4.3002516e+03  -4.3294926e+03  -4.3782419e+03  -4.5227393e+03  -4.5899929e+03  -4.5232506e+03  -4.4272644e+03  -4.5800080e+03  -4.6394907e+03  -4.5379958e+03  -4.4937599e+03  -4.3940076e+03  -4.3879804e+03  -4.5132253e+03  -4.7242474e+03  -4.8139918e+03  -4.7549838e+03  -4.7395024e+03  -4.8069963e+03  -4.8734992e+03  -4.8772547e+03  -4.8532434e+03  -4.8284938e+03  -4.7592520e+03  -4.6749983e+03  -4.6019857e+03  -4.5052439e+03  -4.5082502e+03  -4.4789937e+03  -4.3437390e+03  -4.2262445e+03  -4.0870020e+03  -3.9934883e+03  -4.3707340e+03  -4.9997580e+03  -5.5942854e+03  -6.3170580e+03  -6.6362246e+03  -5.8411426e+03  -4.1896596e+03  -2.7921952e+03  -2.0019940e+03  -1.4080207e+03  -1.0757741e+03  -8.8699340e+02  -4.1348315e+02   3.1721567e+02   9.3195530e+02   1.1499801e+03   1.5564913e+03   2.3510387e+03   3.1490596e+03   3.7845257e+03   4.4122490e+03   4.5940339e+03   4.3698372e+03   4.0948186e+03   3.9027457e+03   3.7954775e+03   3.6372504e+03   3.6480006e+03   3.6597511e+03   3.6772517e+03   3.7072522e+03   3.7102516e+03   3.7092467e+03   3.7087453e+03   3.9277326e+03   4.3034783e+03   4.3699754e+03   4.1494779e+03   4.0797401e+03   3.8889988e+03   3.6204810e+03   3.5827234e+03   3.2317537e+03   2.8117798e+03   2.6530614e+03   2.7302955e+03   2.8727436e+03   2.5887232e+03   2.2307428e+03
-4.0922375e+03  -4.1449919e+03  -4.1607439e+03  -4.1154994e+03  -4.1784995e+03  -4.1197414e+03  -3.8917483e+03  -3.8582493e+03  -4.0042410e+03  -4.0754862e+03  -4.1155027e+03  -4.1962557e+03  -4.1942420e+03  -4.1810003e+03  -4.1489954e+03  -4.2057393e+03  -4.2807443e+03  -4.2644914e+03  -4.2647396e+03  -4.2767467e+03  -4.2835018e+03  -4.2704993e+03  -4.2889981e+03  -4.2407534e+03  -4.2172557e+03  -4.2592534e+03  -4.2400026e+03  -4.2357422e+03  -4.1119711e+03  -4.0154614e+03  -4.1404830e+03  -4.2474993e+03  -4.2575018e+03  -4.3132537e+03  -4.3282485e+03  -4.3287570e+03  -4.2730012e+03  -4.1724953e+03  -4.2042495e+03  -4.2350026e+03  -4.2342491e+03  -4.1870019e+03  -4.1745097e+03  -4.2255017e+03  -4.2764972e+03  -4.2662494e+03  -4.2545018e+03  -4.2707501e+03  -4.2652514e+03  -4.2835017e+03  -4.3005042e+03  -4.3095057e+03  -4.3225026e+03  -4.3422513e+03  -4.3710018e+03  -4.3967516e+03  -4.4195002e+03  -4.4602515e+03  -4.4890026e+03  -4.4919993e+03  -4.5230035e+03  -4.5117553e+03  -4.4800027e+03  -4.4635030e+03  -4.4367511e+03  -4.4290006e+03  -4.4059997e+03  -4.3985025e+03  -4.3932529e+03  -4.3862485e+03  -4.3862478e+03  -4.3854975e+03  -4.3859966e+03  -4.3764980e+03  -4.3779981e+03  -4.3682503e+03  -4.3407525e+03  -4.3547475e+03  -4.3332538e+03  -4.2827606e+03  -4.2120018e+03  -4.1120023e+03  -4.0492580e+03  -3.9520238e+03  -3.8940050e+03  -3.8284948e+03  -3.6140073e+03  -3.4562514e+03  -3.4665092e+03  -3.3247818e+03  -2.9170623e+03  -2.7717965e+03  -2.8977515e+03  -3.2147295e+03  -3.5187347e+03  -3.5632444e+03  -3.7104887e+03  -3.9064855e+03  -3.9884677e+03  -4.0354601e+03  -4.1872271e+03  -4.2559868e+03  -4.3649902e+03  -4.4269827e+03  -4.4052305e+03  -4.5134760e+03  -4.5332317e+03  -4.6114956e+03  -4.6537463e+03  -4.5997364e+03  -4.5602127e+03  -4.5607452e+03  -4.5465253e+03  -4.6177406e+03  -4.6004717e+03  -4.5232202e+03  -4.6472255e+03  -4.6909945e+03  -4.7155041e+03  -4.7975111e+03  -4.7960093e+03  -4.7582444e+03  -4.8477468e+03  -4.9089948e+03  -4.9032408e+03  -4.9212450e+03  -4.8844967e+03  -4.7854935e+03  -4.7177444e+03  -4.6979980e+03  -4.6007398e+03  -4.5579913e+03  -4.5537435e+03  -4.4267469e+03  -4.2874950e+03  -4.0849983e+03  -4.0152581e+03  -4.2360391e+03  -4.4543351e+03  -4.9363267e+03  -5.7442893e+03  -6.6342759e+03  -6.6832145e+03  -5.4248801e+03  -3.8478749e+03  -2.5899056e+03  -1.6541870e+03  -9.8799069e+02  -7.8502410e+02  -4.9350333e+02   4.4551273e+02   1.0867687e+03   1.1882635e+03   1.5160157e+03   1.9942719e+03   2.6035331e+03   3.4425325e+03   4.2317818e+03   4.3120139e+03   3.9519833e+03   3.7824841e+03   3.8305167e+03   3.7805253e+03   3.6325004e+03   3.6412506e+03   3.6747463e+03   3.6817475e+03   3.6937500e+03   3.7417430e+03   3.7724925e+03   3.7672447e+03   4.0137529e+03   4.4609950e+03   4.6054846e+03   4.3499880e+03   4.1899911e+03   4.0062312e+03   3.7899903e+03   3.6505153e+03   3.3049838e+03   2.8874569e+03   2.6339413e+03   2.5767303e+03   2.9282470e+03   2.8017406e+03   2.2380060e+03
-4.1944950e+03  -4.2317432e+03  -4.1895012e+03  -4.0787569e+03  -4.0170284e+03  -4.0340235e+03  -3.8565078e+03  -3.8162580e+03  -4.0644987e+03  -4.1012595e+03  -4.0602568e+03  -4.1110090e+03  -4.1947580e+03  -4.1797499e+03  -4.1720007e+03  -4.2445041e+03  -4.2975028e+03  -4.2882546e+03  -4.3160016e+03  -4.3184961e+03  -4.2582525e+03  -4.2310075e+03  -4.3094984e+03  -4.3107345e+03  -4.2404903e+03  -4.2494983e+03  -4.2392475e+03  -4.2630032e+03  -4.2792503e+03  -4.3147374e+03  -4.3017393e+03  -4.3069904e+03  -4.3207373e+03  -4.2877506e+03  -4.2922577e+03  -4.2617545e+03  -4.2640003e+03  -4.2344940e+03  -4.2102494e+03  -4.2037528e+03  -4.2350008e+03  -4.2069947e+03  -4.1627423e+03  -4.1942537e+03  -4.2412589e+03  -4.2445043e+03  -4.2290026e+03  -4.2575022e+03  -4.2555003e+03  -4.2595024e+03  -4.2652519e+03  -4.2702510e+03  -4.2885033e+03  -4.3212523e+03  -4.3515016e+03  -4.3937489e+03  -4.4324976e+03  -4.4512500e+03  -4.4747499e+03  -4.4912508e+03  -4.5069992e+03  -4.4929979e+03  -4.4630002e+03  -4.4477497e+03  -4.4319997e+03  -4.4212507e+03  -4.4189980e+03  -4.4004972e+03  -4.3757500e+03  -4.3865015e+03  -4.4044991e+03  -4.4127478e+03  -4.4199976e+03  -4.4052470e+03  -4.3909997e+03  -4.3744986e+03  -4.3287495e+03  -4.3202585e+03  -4.2980022e+03  -4.1827565e+03  -4.1020172e+03  -4.0625062e+03  -3.9535085e+03  -3.7457616e+03  -3.6190423e+03  -3.6130424e+03  -3.5410053e+03  -3.4217545e+03  -3.3962528e+03  -2.6758298e+03  -2.2448031e+03  -2.6917168e+03  -3.0194775e+03  -3.4724763e+03  -3.6872363e+03  -3.7112301e+03  -3.8519870e+03  -4.0547391e+03  -4.2234921e+03  -4.2749990e+03  -4.2890056e+03  -4.3162530e+03  -4.4067527e+03  -4.5000048e+03  -4.5274986e+03  -4.5850119e+03  -4.5982573e+03  -4.6564966e+03  -4.5975135e+03  -4.5755179e+03  -4.6770175e+03  -4.5632544e+03  -4.5499739e+03  -4.7349892e+03  -4.7807475e+03  -4.7387429e+03  -4.7927496e+03  -4.7624932e+03  -4.6880006e+03  -4.7057546e+03  -4.7262526e+03  -4.8107466e+03  -4.8994943e+03  -4.9225029e+03  -4.9420026e+03  -4.9405017e+03  -4.9092491e+03  -4.8324984e+03  -4.7767455e+03  -4.7277469e+03  -4.6844959e+03  -4.6025011e+03  -4.5760027e+03  -4.5222367e+03  -4.3859880e+03  -4.1502405e+03  -3.9957452e+03  -3.9377619e+03  -3.8467688e+03  -4.2497910e+03  -5.1000714e+03  -6.1585559e+03  -6.8835013e+03  -6.2479790e+03  -4.6937304e+03  -3.4816915e+03  -2.4181818e+03  -1.2344669e+03  -7.3023512e+02  -6.1322598e+02   8.7798853e+01   8.5552104e+02   1.1327459e+03   1.3557618e+03   1.7720162e+03   2.3592588e+03   3.2427517e+03   3.9825109e+03   4.2989882e+03   4.2967074e+03   4.0139761e+03   3.7692437e+03   3.7144859e+03   3.7707257e+03   3.7214856e+03   3.6979997e+03   3.6930006e+03   3.6675045e+03   3.7155116e+03   3.7925041e+03   3.8254953e+03   3.9340109e+03   4.3450251e+03   4.5722713e+03   4.4782400e+03   4.3637290e+03   4.1219991e+03   4.0654623e+03   3.7559664e+03   3.3310119e+03   3.2394828e+03   3.1454710e+03   2.7484903e+03   2.9122558e+03   2.7872619e+03   2.1215141e+03
-4.1612608e+03  -4.2122602e+03  -4.1407573e+03  -4.1652279e+03  -4.1139545e+03  -4.0939659e+03  -3.8174990e+03  -3.7322566e+03  -4.1014949e+03  -4.1397337e+03  -4.1042355e+03  -4.0714978e+03  -4.1704962e+03  -4.1992467e+03  -4.1547523e+03  -4.1940046e+03  -4.2250097e+03  -4.2140083e+03  -4.1762727e+03  -4.2152719e+03  -4.2534983e+03  -4.2039971e+03  -4.2837561e+03  -4.3300123e+03  -4.2440092e+03  -4.2090088e+03  -4.2292542e+03  -4.2552481e+03  -4.2762502e+03  -4.3087638e+03  -4.3482527e+03  -4.4072422e+03  -4.3762532e+03  -4.2864996e+03  -4.2597479e+03  -4.2452483e+03  -4.2407537e+03  -4.2347560e+03  -4.1932535e+03  -4.1672535e+03  -4.1995054e+03  -4.2175036e+03  -4.2119992e+03  -4.0952635e+03  -4.0697708e+03  -4.1912549e+03  -4.2434949e+03  -4.2482494e+03  -4.2382527e+03  -4.2437503e+03  -4.2537501e+03  -4.2654998e+03  -4.2734993e+03  -4.3037507e+03  -4.3402504e+03  -4.3950009e+03  -4.4345021e+03  -4.4475006e+03  -4.4750001e+03  -4.4842504e+03  -4.4862544e+03  -4.4837537e+03  -4.4585006e+03  -4.4450008e+03  -4.4529966e+03  -4.4614923e+03  -4.4499966e+03  -4.4110010e+03  -4.3794993e+03  -4.4014959e+03  -4.4334959e+03  -4.4444967e+03  -4.4462479e+03  -4.4247496e+03  -4.3912503e+03  -4.3590041e+03  -4.2895073e+03  -4.2460044e+03  -4.2482564e+03  -4.1400009e+03  -4.0274956e+03  -3.9217682e+03  -3.7612749e+03  -3.6385070e+03  -3.4099936e+03  -3.2262745e+03  -3.2782904e+03  -3.2490255e+03  -3.1697866e+03  -2.4892019e+03  -2.3546773e+03  -2.9334914e+03  -3.2787276e+03  -3.6799878e+03  -3.8092426e+03  -3.8417473e+03  -3.9554951e+03  -4.1577431e+03  -4.2427547e+03  -4.2670024e+03  -4.2487513e+03  -4.2897516e+03  -4.3145133e+03  -4.4405055e+03  -4.6384821e+03  -4.6537260e+03  -4.6252379e+03  -4.6597528e+03  -4.5944869e+03  -4.5412379e+03  -4.4285256e+03  -4.4652626e+03  -4.7149977e+03  -4.7860020e+03  -4.8209956e+03  -4.8272418e+03  -4.8102473e+03  -4.8122482e+03  -4.7749842e+03  -4.7374898e+03  -4.7322463e+03  -4.8152527e+03  -4.9230017e+03  -4.9499923e+03  -4.9414975e+03  -4.9160025e+03  -4.9000025e+03  -4.8534979e+03  -4.8197471e+03  -4.7592477e+03  -4.7112495e+03  -4.6589890e+03  -4.6097414e+03  -4.5875021e+03  -4.4789959e+03  -4.2889855e+03  -4.1179836e+03  -3.9679827e+03  -3.7934903e+03  -3.6348157e+03  -4.2665730e+03  -5.5380516e+03  -6.5108136e+03  -6.5587171e+03  -5.2901660e+03  -3.9149836e+03  -2.7792560e+03  -1.6022194e+03  -1.0297129e+03  -8.8822637e+02  -3.4047476e+02   7.1625300e+02   1.2187392e+03   1.2310098e+03   1.5710186e+03   2.1255319e+03   3.0025401e+03   3.8497621e+03   4.2800152e+03   4.3700303e+03   4.1055082e+03   3.8639898e+03   3.8347433e+03   3.8120173e+03   3.7212646e+03   3.8809684e+03   3.8652194e+03   3.6297520e+03   3.6592481e+03   3.7647507e+03   3.8415020e+03   3.8847476e+03   4.3617218e+03   4.5092395e+03   4.2253042e+03   4.2267950e+03   4.0512633e+03   4.1710197e+03   3.8880110e+03   3.2734980e+03   3.3857419e+03   3.2695077e+03   2.9184802e+03   2.8682518e+03   2.6125184e+03   2.2009720e+03
-4.0990000e+03  -4.1624984e+03  -4.1527406e+03  -4.2097644e+03  -4.1242941e+03  -3.9528092e+03  -3.7390148e+03  -3.8449736e+03  -4.1769919e+03  -4.2579957e+03  -4.3077289e+03  -4.2502208e+03  -4.1972492e+03  -4.1427632e+03  -4.1332514e+03  -4.1605012e+03  -4.1592517e+03  -4.1984944e+03  -4.1837258e+03  -4.2119785e+03  -4.2764977e+03  -4.2077522e+03  -4.2212548e+03  -4.2450025e+03  -4.1994985e+03  -4.1632492e+03  -4.1800044e+03  -4.2372551e+03  -4.2322575e+03  -4.2667435e+03  -4.3070046e+03  -4.3000267e+03  -4.3152575e+03  -4.2949989e+03  -4.2422552e+03  -4.2302543e+03  -4.1962541e+03  -4.1982504e+03  -4.2539858e+03  -4.1315027e+03  -4.0932632e+03  -4.2354932e+03  -4.2692407e+03  -4.1452276e+03  -4.0724785e+03  -4.1854960e+03  -4.2782491e+03  -4.2372525e+03  -4.2237498e+03  -4.2549977e+03  -4.2592489e+03  -4.2804975e+03  -4.2837489e+03  -4.2725047e+03  -4.3112547e+03  -4.3790019e+03  -4.4107521e+03  -4.4282528e+03  -4.4615023e+03  -4.4852494e+03  -4.4649993e+03  -4.4230069e+03  -4.4240054e+03  -4.4494984e+03  -4.4655012e+03  -4.4745055e+03  -4.4672504e+03  -4.4267462e+03  -4.4027466e+03  -4.4577442e+03  -4.5014922e+03  -4.5009934e+03  -4.4732474e+03  -4.4327490e+03  -4.4004981e+03  -4.3509973e+03  -4.2927421e+03  -4.2422463e+03  -4.1870043e+03  -4.0952570e+03  -3.9797628e+03  -3.8122508e+03  -3.6507442e+03  -3.4035343e+03  -3.2585330e+03  -3.1582372e+03  -3.0469998e+03  -3.0665063e+03  -2.9954937e+03  -2.8799799e+03  -2.8507363e+03  -3.1434718e+03  -3.6019658e+03  -3.8014910e+03  -3.9244873e+03  -3.9899766e+03  -4.0644858e+03  -4.1590068e+03  -4.1995029e+03  -4.2609986e+03  -4.2297520e+03  -4.2894984e+03  -4.3699768e+03  -4.4822371e+03  -4.6735119e+03  -4.6705213e+03  -4.6555069e+03  -4.6362513e+03  -4.5480213e+03  -4.5427620e+03  -4.3924805e+03  -4.2482754e+03  -4.4797937e+03  -4.7772495e+03  -4.8614974e+03  -4.9002455e+03  -4.8704921e+03  -4.8647426e+03  -4.8894958e+03  -4.8364929e+03  -4.8187385e+03  -4.8729872e+03  -4.9504935e+03  -5.0082476e+03  -4.9857448e+03  -4.9332444e+03  -4.9167445e+03  -4.8600010e+03  -4.8157536e+03  -4.7829982e+03  -4.7269977e+03  -4.7017536e+03  -4.6782466e+03  -4.6152430e+03  -4.5057494e+03  -4.3919966e+03  -4.2664905e+03  -4.0415046e+03  -3.7322706e+03  -3.4869597e+03  -4.1292004e+03  -5.2824928e+03  -6.1265033e+03  -6.7679965e+03  -5.9302224e+03  -3.9847543e+03  -2.5460350e+03  -1.6387745e+03  -1.2155048e+03  -1.0564943e+03  -5.1424495e+02   5.6627332e+02   1.1837671e+03   1.1712506e+03   1.4010111e+03   1.9447496e+03   2.7482542e+03   3.7277592e+03   4.1780025e+03   4.2559895e+03   4.2012249e+03   3.9969869e+03   3.8475045e+03   3.6717572e+03   3.6297514e+03   3.8432885e+03   3.8325366e+03   3.6209995e+03   3.6532529e+03   3.7624997e+03   3.8352491e+03   4.0369757e+03   4.4225178e+03   4.3365409e+03   3.9082510e+03   3.8825150e+03   4.0289905e+03   3.9095261e+03   3.5640458e+03   3.3259928e+03   3.3465150e+03   3.2227505e+03   3.2767070e+03   2.9144901e+03   2.5629902e+03   2.5612150e+03
-4.0967504e+03  -4.1017624e+03  -4.1345128e+03  -4.2387303e+03  -4.0202239e+03  -3.6112508e+03  -3.2890648e+03  -3.5375812e+03  -4.0347834e+03  -4.1327765e+03  -4.1810438e+03  -4.0495651e+03  -4.0145332e+03  -4.1504853e+03  -4.1709918e+03  -4.1330036e+03  -4.1577485e+03  -4.2145028e+03  -4.2402644e+03  -4.1857764e+03  -4.1715209e+03  -4.1777531e+03  -4.1457586e+03  -4.1540136e+03  -4.1765056e+03  -4.1535026e+03  -4.1327539e+03  -4.1985018e+03  -4.2439903e+03  -4.2762549e+03  -4.2185111e+03  -4.1542489e+03  -4.1972633e+03  -4.2040172e+03  -4.2005021e+03  -4.2069997e+03  -4.1897470e+03  -4.2022489e+03  -4.2990064e+03  -4.1687406e+03  -4.0929867e+03  -4.2642517e+03  -4.2860064e+03  -4.2107610e+03  -4.1635056e+03  -4.2172484e+03  -4.2617539e+03  -4.2387472e+03  -4.2439966e+03  -4.2577518e+03  -4.2515025e+03  -4.2745035e+03  -4.2847509e+03  -4.2609973e+03  -4.2889992e+03  -4.3737490e+03  -4.4097481e+03  -4.4090006e+03  -4.4385018e+03  -4.4637544e+03  -4.4475038e+03  -4.3909987e+03  -4.4162459e+03  -4.4644989e+03  -4.4435027e+03  -4.4317520e+03  -4.4585012e+03  -4.4282536e+03  -4.4060028e+03  -4.4545064e+03  -4.4750126e+03  -4.4822600e+03  -4.4477571e+03  -4.3925082e+03  -4.3742566e+03  -4.3325060e+03  -4.2385176e+03  -4.1902630e+03  -4.1517519e+03  -4.0135074e+03  -3.8185157e+03  -3.6772731e+03  -3.6062637e+03  -3.2847365e+03  -3.1142422e+03  -3.2287504e+03  -3.0699961e+03  -2.9260185e+03  -2.8877755e+03  -2.8940178e+03  -3.1022193e+03  -3.5574551e+03  -3.8539898e+03  -3.9357353e+03  -4.0904834e+03  -4.1804898e+03  -4.1712454e+03  -4.1544940e+03  -4.2204934e+03  -4.3662328e+03  -4.4702054e+03  -4.4739689e+03  -4.4907520e+03  -4.6419847e+03  -4.6917347e+03  -4.5365023e+03  -4.5265160e+03  -4.5115208e+03  -4.4522454e+03  -4.5169925e+03  -4.5142481e+03  -4.2122307e+03  -4.3159849e+03  -4.7735012e+03  -4.8657519e+03  -4.8992547e+03  -4.9052518e+03  -4.9692390e+03  -4.9664906e+03  -4.8832489e+03  -4.8747516e+03  -4.9207545e+03  -4.9790015e+03  -4.9897557e+03  -4.9980031e+03  -4.9737484e+03  -4.9527492e+03  -4.8954927e+03  -4.8424916e+03  -4.8049980e+03  -4.7444992e+03  -4.6765009e+03  -4.6627562e+03  -4.6237555e+03  -4.5087500e+03  -4.4799879e+03  -4.2725085e+03  -3.9947537e+03  -3.5500115e+03  -3.4018058e+03  -4.4015018e+03  -5.3045034e+03  -5.7968051e+03  -6.7227616e+03  -6.4154419e+03  -4.4766585e+03  -2.8521604e+03  -1.7836996e+03  -1.2144953e+03  -1.0320101e+03  -4.9675820e+02   4.4024880e+02   1.0657537e+03   1.1407548e+03   1.2485159e+03   1.7810294e+03   2.5737767e+03   3.6592529e+03   4.1515021e+03   4.2635093e+03   4.3782439e+03   4.0220088e+03   3.7347655e+03   3.6217516e+03   3.6205003e+03   3.6232501e+03   3.6240000e+03   3.6240000e+03   3.6317508e+03   3.7122592e+03   3.8120051e+03   4.2162428e+03   4.3210000e+03   3.9677741e+03   3.7847709e+03   3.7442594e+03   3.8875347e+03   3.5677843e+03   3.2290131e+03   3.2945129e+03   3.2952439e+03   3.2932370e+03   3.5924874e+03   3.1024767e+03   2.5985036e+03   2.6815140e+03
-4.0465086e+03  -4.0789916e+03  -4.1269885e+03  -4.2247724e+03  -4.0955129e+03  -3.8287103e+03  -3.3366761e+03  -3.3711978e+03  -3.8250038e+03  -3.8405255e+03  -3.8622628e+03  -3.8307235e+03  -3.9832221e+03  -4.1440160e+03  -4.1125187e+03  -4.1284971e+03  -4.1227577e+03  -4.1417602e+03  -4.1677484e+03  -4.0819920e+03  -4.1087401e+03  -4.2134905e+03  -4.1942327e+03  -4.1954789e+03  -4.1727450e+03  -4.1592464e+03  -4.1502429e+03  -4.1340097e+03  -4.2172645e+03  -4.2062576e+03  -4.1564999e+03  -4.1744975e+03  -4.1037533e+03  -4.1294960e+03  -4.1917494e+03  -4.2104996e+03  -4.2422436e+03  -4.2224975e+03  -4.2417538e+03  -4.2224998e+03  -4.1737490e+03  -4.2072585e+03  -4.2410016e+03  -4.2302354e+03  -4.2122356e+03  -4.2397476e+03  -4.2497483e+03  -4.2510006e+03  -4.2590007e+03  -4.2797442e+03  -4.2667448e+03  -4.2557498e+03  -4.2802499e+03  -4.2972463e+03  -4.3162459e+03  -4.3690019e+03  -4.4249992e+03  -4.4309954e+03  -4.4389981e+03  -4.4394999e+03  -4.4217508e+03  -4.4002497e+03  -4.4230030e+03  -4.4397555e+03  -4.4032545e+03  -4.3892556e+03  -4.3942603e+03  -4.3565092e+03  -4.3342600e+03  -4.3465129e+03  -4.3387617e+03  -4.3572623e+03  -4.3420117e+03  -4.3250038e+03  -4.2797602e+03  -4.2155148e+03  -4.1577466e+03  -4.1132507e+03  -4.0450172e+03  -3.8812661e+03  -3.6447652e+03  -3.4362698e+03  -3.2885430e+03  -3.2040281e+03  -3.1220064e+03  -3.0932738e+03  -2.9157815e+03  -2.7552618e+03  -2.7305024e+03  -2.8849836e+03  -3.4802134e+03  -3.8677398e+03  -3.9212483e+03  -4.0217494e+03  -4.1430073e+03  -4.2080054e+03  -4.2007493e+03  -4.2039972e+03  -4.4094729e+03  -4.6242212e+03  -4.6897558e+03  -4.6077575e+03  -4.4707516e+03  -4.6090214e+03  -4.6332759e+03  -4.4917557e+03  -4.4959894e+03  -4.5702185e+03  -4.6807137e+03  -4.6819781e+03  -4.5824897e+03  -4.4512267e+03  -4.3792539e+03  -4.6242755e+03  -4.7777638e+03  -4.7585204e+03  -4.8742537e+03  -5.0017553e+03  -4.9937546e+03  -4.9112461e+03  -4.9112418e+03  -4.9234950e+03  -4.9707500e+03  -4.9977428e+03  -4.9780004e+03  -4.9467564e+03  -4.9555004e+03  -4.9577462e+03  -4.9304928e+03  -4.8452449e+03  -4.7642473e+03  -4.6959956e+03  -4.6642435e+03  -4.6469903e+03  -4.5404943e+03  -4.4422690e+03  -4.1727593e+03  -3.9565031e+03  -3.5612364e+03  -3.2712170e+03  -3.9520786e+03  -4.6023722e+03  -5.2727881e+03  -6.6062592e+03  -6.7732447e+03  -5.0464904e+03  -3.3315047e+03  -2.0692498e+03  -1.1772614e+03  -8.0403058e+02  -3.4226936e+02   4.7274539e+02   1.0709953e+03   1.1025020e+03   1.1010104e+03   1.5055196e+03   2.3172689e+03   3.5430179e+03   4.0537653e+03   4.1755063e+03   4.2547782e+03   3.9050121e+03   3.7257360e+03   3.6137498e+03   3.6232492e+03   3.6257494e+03   3.6240000e+03   3.6240000e+03   3.6255003e+03   3.6425032e+03   3.7345088e+03   4.0952789e+03   4.1387826e+03   3.8407484e+03   3.7699816e+03   3.7462402e+03   3.7134962e+03   3.3140108e+03   3.0290225e+03   3.1402646e+03   3.3692429e+03   3.3972445e+03   3.2338269e+03   2.8943108e+03   2.4462736e+03   2.3327982e+03
-3.9107658e+03  -3.9632794e+03  -4.1662546e+03  -4.1072486e+03  -4.0157514e+03  -3.9717642e+03  -3.7377522e+03  -3.6400042e+03  -3.8049997e+03  -3.8692191e+03  -3.8634868e+03  -3.9437564e+03  -3.9617821e+03  -3.9432701e+03  -4.0472429e+03  -4.1140055e+03  -4.1132439e+03  -4.1394902e+03  -4.1305083e+03  -4.0592622e+03  -4.0845143e+03  -4.1622688e+03  -4.2257618e+03  -4.2412630e+03  -4.1275132e+03  -4.1220104e+03  -4.0445263e+03  -4.0087628e+03  -4.1522471e+03  -4.1475030e+03  -4.1462519e+03  -4.1722529e+03  -4.0987476e+03  -4.1470009e+03  -4.2177459e+03  -4.2612412e+03  -4.3072447e+03  -4.2469981e+03  -4.2327478e+03  -4.2342481e+03  -4.1857489e+03  -4.1872451e+03  -4.2547459e+03  -4.2807556e+03  -4.2645051e+03  -4.2562494e+03  -4.2672486e+03  -4.2799941e+03  -4.2822451e+03  -4.2925035e+03  -4.2870016e+03  -4.2714974e+03  -4.2877488e+03  -4.3232491e+03  -4.3552471e+03  -4.3757469e+03  -4.4125031e+03  -4.4292549e+03  -4.4262542e+03  -4.4295019e+03  -4.4464948e+03  -4.4224963e+03  -4.3885032e+03  -4.3887537e+03  -4.3889980e+03  -4.3634990e+03  -4.3102547e+03  -4.3389939e+03  -4.3107442e+03  -4.2380066e+03  -4.2345070e+03  -4.2187626e+03  -4.2285087e+03  -4.2752551e+03  -4.1882562e+03  -4.0927572e+03  -4.0787676e+03  -4.0135173e+03  -3.9075075e+03  -3.7595057e+03  -3.5747472e+03  -3.3602437e+03  -3.0997407e+03  -2.9565163e+03  -2.9037829e+03  -2.8517695e+03  -2.6747617e+03  -2.6732528e+03  -2.7329971e+03  -3.0704830e+03  -3.7534876e+03  -3.9557444e+03  -3.9607446e+03  -3.9455143e+03  -4.0492595e+03  -4.2839809e+03  -4.3957155e+03  -4.4297121e+03  -4.5375042e+03  -4.6140309e+03  -4.5492695e+03  -4.5075106e+03  -4.4580007e+03  -4.4752526e+03  -4.5232437e+03  -4.5484840e+03  -4.6559819e+03  -4.7849931e+03  -4.9134946e+03  -4.9009826e+03  -4.8179679e+03  -4.5545049e+03  -4.2890124e+03  -4.5329907e+03  -4.7879842e+03  -4.7494811e+03  -4.8232555e+03  -5.0462366e+03  -5.0592335e+03  -4.9332500e+03  -4.9360038e+03  -4.9522499e+03  -4.9570025e+03  -5.0277518e+03  -5.0127433e+03  -4.9479933e+03  -4.9542499e+03  -4.9482555e+03  -4.9175097e+03  -4.8455051e+03  -4.8002463e+03  -4.7632423e+03  -4.7412426e+03  -4.6877525e+03  -4.6427373e+03  -4.5464620e+03  -4.3747042e+03  -4.1039702e+03  -3.7642271e+03  -3.5319862e+03  -3.2228023e+03  -3.5145730e+03  -4.8375401e+03  -6.3230419e+03  -6.6857712e+03  -5.2162290e+03  -3.2997510e+03  -2.0215088e+03  -1.1384955e+03  -5.7376069e+02  -1.8950803e+02   5.1124770e+02   1.1014992e+03   1.0730033e+03   1.0192543e+03   1.2805208e+03   2.0405309e+03   3.2997759e+03   3.9724992e+03   4.2027387e+03   4.0885015e+03   3.9002387e+03   3.8632393e+03   3.6177495e+03   3.6299995e+03   3.6354988e+03   3.6309987e+03   3.6240000e+03   3.6240000e+03   3.6287492e+03   3.6645038e+03   3.8250196e+03   3.8687658e+03   3.9847256e+03   3.9382382e+03   3.7532586e+03   3.7667443e+03   3.2767458e+03   2.8660067e+03   3.1722295e+03   3.4864860e+03   3.3742597e+03   3.0734514e+03   2.5272549e+03   2.0313011e+03   1.9517701e+03
-3.8614930e+03  -3.8482413e+03  -4.0992576e+03  -4.1332467e+03  -3.9890035e+03  -3.7742716e+03  -3.7537449e+03  -3.7817200e+03  -3.8399939e+03  -3.9540157e+03  -3.8577643e+03  -3.8125175e+03  -3.8452388e+03  -3.9414801e+03  -4.0507565e+03  -4.0647534e+03  -4.1487497e+03  -4.1832520e+03  -4.1077458e+03  -4.0927316e+03  -4.0882348e+03  -4.0947433e+03  -4.1902446e+03  -4.1747490e+03  -4.1074904e+03  -4.1207398e+03  -4.0274766e+03  -4.0389816e+03  -4.1322566e+03  -4.1087541e+03  -4.1402491e+03  -4.1812454e+03  -4.1647404e+03  -4.1862419e+03  -4.2637458e+03  -4.3117497e+03  -4.2815100e+03  -4.2050096e+03  -4.2282530e+03  -4.2604972e+03  -4.2387415e+03  -4.2479939e+03  -4.2745005e+03  -4.2177558e+03  -4.1992568e+03  -4.2505016e+03  -4.2869978e+03  -4.3134998e+03  -4.2887538e+03  -4.2717502e+03  -4.2857486e+03  -4.2884995e+03  -4.3107470e+03  -4.3312495e+03  -4.3412555e+03  -4.4019984e+03  -4.4177459e+03  -4.3982507e+03  -4.4189971e+03  -4.4227493e+03  -4.4225096e+03  -4.3977582e+03  -4.3717498e+03  -4.3685000e+03  -4.3652563e+03  -4.3290073e+03  -4.2780011e+03  -4.3040126e+03  -4.2557659e+03  -4.1595076e+03  -4.1380105e+03  -4.1132565e+03  -4.0812681e+03  -4.0835298e+03  -4.0680157e+03  -4.0674974e+03  -3.9919980e+03  -3.8605104e+03  -3.7925134e+03  -3.5670293e+03  -3.3970351e+03  -3.3627559e+03  -3.0897612e+03  -2.8050111e+03  -2.7037532e+03  -2.5922775e+03  -2.3790421e+03  -2.4887807e+03  -2.9207187e+03  -3.4382002e+03  -3.7925054e+03  -3.9095141e+03  -3.9437585e+03  -3.9482350e+03  -4.2222089e+03  -4.4527386e+03  -4.4867683e+03  -4.4565334e+03  -4.4652589e+03  -4.5599787e+03  -4.5064881e+03  -4.4285037e+03  -4.4837446e+03  -4.5392358e+03  -4.6534826e+03  -4.7157357e+03  -4.7360037e+03  -4.7645107e+03  -4.8667640e+03  -4.9225137e+03  -4.9545076e+03  -4.7254640e+03  -4.5414416e+03  -4.6927303e+03  -4.7850165e+03  -4.7702653e+03  -4.7280118e+03  -4.9687776e+03  -5.0560172e+03  -4.9554960e+03  -4.9404954e+03  -4.9310040e+03  -4.9165048e+03  -4.9337652e+03  -4.9632658e+03  -4.9165125e+03  -4.9002600e+03  -4.8675091e+03  -4.8467531e+03  -4.8547431e+03  -4.8307482e+03  -4.7922525e+03  -4.7340087e+03  -4.6572530e+03  -4.7017520e+03  -4.6715156e+03  -4.5582628e+03  -4.3859787e+03  -4.1164589e+03  -3.7874674e+03  -3.3166801e+03  -3.4759334e+03  -4.5787567e+03  -5.8770390e+03  -6.4302752e+03  -5.2215202e+03  -3.2942500e+03  -2.0449868e+03  -1.0662677e+03  -3.8802303e+02  -7.3762972e+01   4.9925451e+02   1.0140168e+03   1.0357534e+03   1.0109972e+03   1.1497528e+03   1.7795164e+03   2.9467882e+03   3.8355258e+03   4.0672861e+03   4.1177431e+03   4.2184535e+03   4.0207321e+03   3.7547256e+03   3.7064865e+03   3.8242168e+03   3.8142179e+03   3.6304988e+03   3.6297490e+03   3.6387490e+03   3.6432500e+03   3.6837560e+03   3.7555046e+03   3.9885239e+03   4.0407432e+03   3.9064634e+03   3.7745044e+03   3.2582576e+03   2.8594944e+03   3.1165309e+03   3.2665542e+03   3.3025033e+03   3.3400005e+03   2.6902154e+03   2.2186643e+03   1.9322333e+03
-3.9537401e+03  -3.9544893e+03  -4.0942432e+03  -4.0355213e+03  -3.9590020e+03  -3.7969740e+03  -3.7842496e+03  -3.9452502e+03  -3.9312394e+03  -3.9432361e+03  -3.7575039e+03  -3.7529933e+03  -4.0402254e+03  -4.1004909e+03  -4.0354962e+03  -4.0252538e+03  -4.1165062e+03  -4.1847477e+03  -4.1217517e+03  -4.1810024e+03  -4.1949957e+03  -4.1364991e+03  -4.1095203e+03  -4.0617718e+03  -4.1177579e+03  -4.1142615e+03  -4.0155258e+03  -4.0535159e+03  -4.1102474e+03  -4.0500067e+03  -4.0862608e+03  -4.1715064e+03  -4.1915048e+03  -4.1877579e+03  -4.2315102e+03  -4.2907542e+03  -4.2619935e+03  -4.1809948e+03  -4.1975026e+03  -4.2570035e+03  -4.2757518e+03  -4.3009964e+03  -4.2789986e+03  -4.1822507e+03  -4.1620000e+03  -4.2260028e+03  -4.2735047e+03  -4.2917542e+03  -4.2635008e+03  -4.2597520e+03  -4.2692545e+03  -4.2914999e+03  -4.3020046e+03  -4.3172531e+03  -4.3424942e+03  -4.3682579e+03  -4.3857600e+03  -4.3737538e+03  -4.3680123e+03  -4.3537634e+03  -4.3565024e+03  -4.3607485e+03  -4.3500042e+03  -4.3395053e+03  -4.3105037e+03  -4.3004979e+03  -4.2734997e+03  -4.2305008e+03  -4.1764985e+03  -4.1015029e+03  -4.0412572e+03  -4.0060131e+03  -3.9660029e+03  -3.9339974e+03  -3.8522738e+03  -3.8565414e+03  -3.9200152e+03  -3.7962513e+03  -3.5755264e+03  -3.2767737e+03  -3.0047866e+03  -2.8563371e+03  -2.6535688e+03  -2.5655328e+03  -2.5557739e+03  -2.2960266e+03  -1.8395567e+03  -2.2550119e+03  -3.2469716e+03  -3.6482617e+03  -3.6565196e+03  -3.8110039e+03  -4.0977131e+03  -4.2237145e+03  -4.3692645e+03  -4.4397639e+03  -4.4169944e+03  -4.3497359e+03  -4.4174998e+03  -4.6052632e+03  -4.5844977e+03  -4.4457431e+03  -4.4987527e+03  -4.5940043e+03  -4.6832621e+03  -4.7385103e+03  -4.7010027e+03  -4.7025006e+03  -4.7752527e+03  -4.8854930e+03  -4.9282472e+03  -4.8675103e+03  -4.8397542e+03  -4.6185335e+03  -4.4150513e+03  -4.6057647e+03  -4.7079917e+03  -4.7712584e+03  -4.8800150e+03  -4.9380073e+03  -4.9502529e+03  -4.9272466e+03  -4.8934994e+03  -4.8205054e+03  -4.8769999e+03  -4.8110068e+03  -4.7610155e+03  -4.8157503e+03  -4.8292500e+03  -4.8612557e+03  -4.8315017e+03  -4.7827492e+03  -4.6857500e+03  -4.6230032e+03  -4.6575061e+03  -4.5667535e+03  -4.5197442e+03  -4.5469919e+03  -4.4507300e+03  -4.1274704e+03  -3.7914833e+03  -3.8897412e+03  -4.5844922e+03  -5.6867456e+03  -6.4234758e+03  -5.3277101e+03  -3.4217266e+03  -2.2142322e+03  -1.1287207e+03  -3.7697879e+02   5.2485763e+00   4.6975087e+02   9.1050211e+02   1.0217491e+03   9.9750533e+02   1.1162534e+03   1.6532567e+03   2.7265019e+03   3.7457405e+03   3.9494852e+03   4.0775143e+03   4.2152975e+03   4.0372650e+03   3.8865005e+03   3.8612352e+03   3.9717564e+03   3.8262802e+03   3.6454984e+03   3.6454982e+03   3.6617468e+03   3.6589971e+03   3.6732459e+03   3.7599945e+03   3.8709974e+03   4.0117622e+03   4.0102679e+03   3.6737641e+03   3.1340152e+03   2.9239938e+03   3.1602108e+03   3.1052250e+03   3.0975343e+03   3.0832966e+03   2.7032826e+03   2.5557746e+03   1.9495137e+03
-4.0277462e+03  -4.0112503e+03  -4.0390170e+03  -3.9344972e+03  -4.0147376e+03  -3.9260023e+03  -3.8234931e+03  -3.9762440e+03  -3.9705034e+03  -3.9557617e+03  -3.8074868e+03  -3.8074967e+03  -3.9515412e+03  -3.9420385e+03  -3.9490198e+03  -4.0299953e+03  -4.1079953e+03  -4.1710048e+03  -4.1582415e+03  -4.1827473e+03  -4.1337657e+03  -4.0295208e+03  -4.0267449e+03  -4.0534795e+03  -4.0387567e+03  -4.0280044e+03  -4.0119746e+03  -3.9987441e+03  -4.1349981e+03  -4.1582232e+03  -4.0907383e+03  -4.1067555e+03  -4.1190086e+03  -4.1542483e+03  -4.1919970e+03  -4.2380056e+03  -4.2672556e+03  -4.2102499e+03  -4.2074956e+03  -4.3062374e+03  -4.3237393e+03  -4.2897557e+03  -4.2682534e+03  -4.1977464e+03  -4.1585006e+03  -4.1982523e+03  -4.2317530e+03  -4.2440046e+03  -4.2629993e+03  -4.2587482e+03  -4.2377513e+03  -4.2687543e+03  -4.2859983e+03  -4.3117479e+03  -4.3725003e+03  -4.3672423e+03  -4.3070045e+03  -4.2962605e+03  -4.3289948e+03  -4.3124942e+03  -4.3080066e+03  -4.3302572e+03  -4.3549948e+03  -4.3312462e+03  -4.2815017e+03  -4.2852550e+03  -4.2470052e+03  -4.1977552e+03  -4.1645037e+03  -4.0954981e+03  -3.9895023e+03  -3.8902582e+03  -3.8735142e+03  -3.8487684e+03  -3.7070029e+03  -3.6317499e+03  -3.5710493e+03  -3.5552933e+03  -3.4574953e+03  -3.0437692e+03  -2.6887716e+03  -2.4757326e+03  -2.3567356e+03  -2.3770019e+03  -2.3167702e+03  -1.9970285e+03  -1.6044864e+03  -2.3989613e+03  -3.5062306e+03  -3.7299730e+03  -3.8256989e+03  -4.0379540e+03  -4.3284944e+03  -4.3605105e+03  -4.2817516e+03  -4.2312746e+03  -4.2642840e+03  -4.3205196e+03  -4.3517624e+03  -4.4377677e+03  -4.5102661e+03  -4.4637537e+03  -4.4535057e+03  -4.6182412e+03  -4.6659910e+03  -4.6650032e+03  -4.6597550e+03  -4.6707553e+03  -4.7674987e+03  -4.8190194e+03  -4.8065254e+03  -4.7185172e+03  -4.7222676e+03  -4.6089679e+03  -4.4299454e+03  -4.7282124e+03  -4.9307171e+03  -4.8189827e+03  -4.8322437e+03  -4.8847525e+03  -4.9262515e+03  -4.9479995e+03  -4.9039987e+03  -4.8089967e+03  -4.8212604e+03  -4.7812487e+03  -4.7229914e+03  -4.7810061e+03  -4.8312496e+03  -4.8422477e+03  -4.8322482e+03  -4.8282424e+03  -4.6952482e+03  -4.6327450e+03  -4.6609932e+03  -4.5712456e+03  -4.5272545e+03  -4.4520258e+03  -4.3552878e+03  -4.2485074e+03  -3.8447570e+03  -3.9220029e+03  -4.7129841e+03  -5.7827366e+03  -6.6089900e+03  -5.5497491e+03  -3.6337343e+03  -2.4309778e+03  -1.3562374e+03  -5.2574384e+02  -3.6740782e+01   4.3075635e+02   8.7525440e+02   9.8700732e+02   9.0751130e+02   1.0627565e+03   1.5590107e+03   2.5727765e+03   3.7117659e+03   4.2604573e+03   4.2749490e+03   4.0007418e+03   3.9360036e+03   3.9932298e+03   3.9235034e+03   3.8045246e+03   3.6737478e+03   3.7102396e+03   3.7407342e+03   3.7167430e+03   3.6889974e+03   3.7254944e+03   3.8187447e+03   3.9704842e+03   3.9802436e+03   3.8790063e+03   3.6652374e+03   3.1827257e+03   3.1472149e+03   3.4047442e+03   3.1000262e+03   2.7535291e+03   2.8444972e+03   2.5502455e+03   2.3345162e+03   1.9289900e+03
-4.0140064e+03  -4.0067505e+03  -4.0034894e+03  -4.0109885e+03  -4.0879988e+03  -3.9707393e+03  -3.9394852e+03  -4.0509921e+03  -3.9964917e+03  -3.9499893e+03  -3.9217420e+03  -3.8604935e+03  -3.7874891e+03  -3.8344812e+03  -3.9119869e+03  -4.0280051e+03  -4.1210023e+03  -4.1347519e+03  -4.1682567e+03  -4.1435101e+03  -4.0210052e+03  -4.0532246e+03  -4.1487324e+03  -4.1120097e+03  -4.0324944e+03  -4.0234964e+03  -4.0740140e+03  -4.0947380e+03  -4.1202547e+03  -4.1070366e+03  -4.1370032e+03  -4.2632152e+03  -4.1957270e+03  -4.1355052e+03  -4.2104995e+03  -4.2127491e+03  -4.2262520e+03  -4.2102501e+03  -4.2317500e+03  -4.3102620e+03  -4.3462566e+03  -4.3184889e+03  -4.2837437e+03  -4.2352466e+03  -4.1879938e+03  -4.1904992e+03  -4.2209990e+03  -4.2269985e+03  -4.2467538e+03  -4.2560023e+03  -4.2227514e+03  -4.2207546e+03  -4.2467590e+03  -4.3175010e+03  -4.3367564e+03  -4.3132679e+03  -4.2585045e+03  -4.2557470e+03  -4.3202569e+03  -4.3002582e+03  -4.2789988e+03  -4.2947494e+03  -4.3302599e+03  -4.3612483e+03  -4.3104929e+03  -4.2355043e+03  -4.1980039e+03  -4.1415052e+03  -4.0942594e+03  -4.0332635e+03  -3.9655021e+03  -3.8662462e+03  -3.7600069e+03  -3.6312721e+03  -3.5295303e+03  -3.4812783e+03  -3.3334947e+03  -3.1112893e+03  -3.0828248e+03  -2.8870099e+03  -2.5212595e+03  -2.3812852e+03  -2.2175406e+03  -2.0738048e+03  -1.9223034e+03  -1.7365199e+03  -2.0751757e+03  -3.0691638e+03  -3.7752193e+03  -4.0137242e+03  -4.2039808e+03  -4.2979978e+03  -4.2662672e+03  -4.1390308e+03  -4.1357757e+03  -4.1709864e+03  -4.1642344e+03  -4.2487436e+03  -4.3407396e+03  -4.4307334e+03  -4.4639924e+03  -4.5894728e+03  -4.6622053e+03  -4.6465036e+03  -4.6062702e+03  -4.5285222e+03  -4.5345184e+03  -4.6739940e+03  -4.8132428e+03  -4.7209988e+03  -4.6737492e+03  -4.7059850e+03  -4.7109844e+03  -4.7677527e+03  -4.7227503e+03  -4.8430164e+03  -4.9947713e+03  -4.9122500e+03  -4.8500030e+03  -4.8962453e+03  -4.9574926e+03  -4.9392521e+03  -4.9189985e+03  -4.8584941e+03  -4.7929948e+03  -4.7502571e+03  -4.7152601e+03  -4.7230047e+03  -4.7942573e+03  -4.8195065e+03  -4.8362511e+03  -4.8732493e+03  -4.7264960e+03  -4.6200075e+03  -4.6040175e+03  -4.5437596e+03  -4.4380121e+03  -4.2677585e+03  -4.1437514e+03  -4.1225161e+03  -3.7827545e+03  -3.9184978e+03  -4.8824844e+03  -5.7642670e+03  -6.4402916e+03  -5.6567309e+03  -3.8837191e+03  -2.6322348e+03  -1.5202320e+03  -6.4523388e+02  -1.6048617e+02   3.5400794e+02   8.5499935e+02   9.0725752e+02   8.0475780e+02   9.9250654e+02   1.4510093e+03   2.3052732e+03   3.4927749e+03   4.2585435e+03   4.4245236e+03   4.1832242e+03   3.8852558e+03   3.8905396e+03   3.8485106e+03   3.7889781e+03   3.8124763e+03   3.8214897e+03   3.7985051e+03   3.7427522e+03   3.7284952e+03   3.7837447e+03   3.9089885e+03   4.1357351e+03   4.1669716e+03   4.0244664e+03   3.8799726e+03   3.5547050e+03   3.5344630e+03   3.3922582e+03   2.8307739e+03   2.6514897e+03   2.8802461e+03   2.6904783e+03   2.3102382e+03   1.8525244e+03
-4.0252415e+03  -4.0274956e+03  -4.0315054e+03  -4.0752495e+03  -4.0187643e+03  -3.9227698e+03  -4.0197498e+03  -4.1164957e+03  -4.0442494e+03  -3.9857541e+03  -3.9677494e+03  -3.9337428e+03  -3.7897606e+03  -3.7887776e+03  -3.9380083e+03  -4.0377430e+03  -4.0420125e+03  -4.0642614e+03  -4.1857400e+03  -4.1517383e+03  -4.0659862e+03  -4.1355101e+03  -4.0715323e+03  -3.9805150e+03  -4.0809965e+03  -3.9962587e+03  -3.9642566e+03  -4.0885133e+03  -4.0989992e+03  -4.0499738e+03  -4.1254990e+03  -4.4062582e+03  -4.3209996e+03  -4.0942525e+03  -4.1597600e+03  -4.1910050e+03  -4.2622412e+03  -4.2587407e+03  -4.1952569e+03  -4.2462500e+03  -4.2920036e+03  -4.3062635e+03  -4.3192497e+03  -4.2694970e+03  -4.2032533e+03  -4.1820025e+03  -4.1970056e+03  -4.2310008e+03  -4.2269999e+03  -4.1975087e+03  -4.1987531e+03  -4.2139966e+03  -4.2182463e+03  -4.2812558e+03  -4.2652570e+03  -4.2080018e+03  -4.2547462e+03  -4.2595024e+03  -4.2402582e+03  -4.1947616e+03  -4.2240116e+03  -4.2767540e+03  -4.2592534e+03  -4.3307575e+03  -4.3157562e+03  -4.2144996e+03  -4.1647523e+03  -4.1442442e+03  -4.0984897e+03  -3.9572507e+03  -3.9262552e+03  -3.7470263e+03  -3.5990234e+03  -3.4910041e+03  -3.2327754e+03  -3.1975250e+03  -3.2867642e+03  -3.0424733e+03  -2.6032649e+03  -2.4215778e+03  -2.2382938e+03  -1.9770407e+03  -1.7600453e+03  -1.5900359e+03  -1.6552465e+03  -2.0651679e+03  -2.9854033e+03  -3.7961999e+03  -4.0254838e+03  -4.1824942e+03  -4.2705068e+03  -4.1967714e+03  -4.1884973e+03  -4.1669636e+03  -4.2389547e+03  -4.3694762e+03  -4.3609786e+03  -4.3742328e+03  -4.4164962e+03  -4.5284983e+03  -4.5122485e+03  -4.7135041e+03  -4.7425300e+03  -4.5837582e+03  -4.6059796e+03  -4.3940029e+03  -4.3675129e+03  -4.6447615e+03  -4.7745146e+03  -4.7140025e+03  -4.7144931e+03  -4.8104955e+03  -4.8247443e+03  -4.6670163e+03  -4.5890249e+03  -4.7222562e+03  -4.8465065e+03  -4.8727574e+03  -4.8235020e+03  -4.8605115e+03  -4.9302626e+03  -4.8465154e+03  -4.8190204e+03  -4.8212630e+03  -4.7420149e+03  -4.6757568e+03  -4.6664990e+03  -4.6655061e+03  -4.7604990e+03  -4.8667345e+03  -4.8727420e+03  -4.5803059e+03  -4.4980471e+03  -4.6324901e+03  -4.5085004e+03  -4.4560069e+03  -4.3515041e+03  -4.1960050e+03  -4.0857596e+03  -3.9942580e+03  -3.8634802e+03  -4.0089852e+03  -4.8062801e+03  -5.5855166e+03  -6.4009654e+03  -5.9637114e+03  -4.0759949e+03  -2.7072512e+03  -1.5987533e+03  -7.3399953e+02  -2.7174298e+02   3.7298840e+02   9.0349152e+02   8.5625203e+02   7.6899887e+02   9.3175485e+02   1.3545088e+03   2.1829996e+03   3.4282370e+03   4.0012547e+03   4.1747733e+03   4.1775271e+03   4.0369655e+03   4.1029200e+03   4.0282055e+03   3.9982326e+03   3.9060063e+03   3.8175111e+03   3.7535033e+03   3.7337495e+03   3.7644980e+03   3.8364954e+03   3.9859971e+03   4.2017526e+03   4.2390151e+03   4.0265335e+03   3.7680487e+03   3.6350303e+03   3.6917577e+03   3.3652468e+03   2.8524718e+03   2.9049626e+03   2.8667565e+03   2.6330327e+03   2.4289895e+03   2.1349221e+03
-4.0480043e+03  -4.0654972e+03  -4.0392431e+03  -4.0952467e+03  -4.0124868e+03  -3.8884865e+03  -3.9855068e+03  -4.1020071e+03  -4.0647467e+03  -4.0044923e+03  -3.9814980e+03  -3.9602522e+03  -3.8559767e+03  -3.8227157e+03  -3.9169956e+03  -4.0052633e+03  -3.9839984e+03  -4.0027502e+03  -4.2192538e+03  -4.2042519e+03  -4.1117552e+03  -4.0842496e+03  -3.9614883e+03  -3.9619884e+03  -4.1097481e+03  -4.0302347e+03  -3.9997366e+03  -4.0684904e+03  -4.0900025e+03  -4.2162448e+03  -4.1817403e+03  -4.1335436e+03  -4.2587622e+03  -4.2097255e+03  -4.1209972e+03  -4.1682493e+03  -4.1672770e+03  -4.2160175e+03  -4.1834952e+03  -4.2012586e+03  -4.2267588e+03  -4.2367496e+03  -4.2950049e+03  -4.2567555e+03  -4.2014970e+03  -4.1929954e+03  -4.1777481e+03  -4.1997552e+03  -4.2152523e+03  -4.1627479e+03  -4.1655032e+03  -4.1925075e+03  -4.1975077e+03  -4.2062584e+03  -4.1925068e+03  -4.1842527e+03  -4.1975147e+03  -4.1872614e+03  -4.1715048e+03  -4.1454976e+03  -4.1959936e+03  -4.2535004e+03  -4.2524978e+03  -4.2495079e+03  -4.2302600e+03  -4.2012529e+03  -4.1597486e+03  -4.1287588e+03  -3.9977795e+03  -3.8205253e+03  -3.7842717e+03  -3.6070001e+03  -3.4725005e+03  -3.3140295e+03  -3.0317626e+03  -3.0017620e+03  -3.0665276e+03  -3.0407772e+03  -2.6277303e+03  -2.2297080e+03  -2.0467423e+03  -1.3548273e+03  -1.2045599e+03  -1.6069605e+03  -1.9919395e+03  -2.8031924e+03  -3.6559700e+03  -4.1467339e+03  -4.1797370e+03  -4.0997715e+03  -4.0630326e+03  -4.1154939e+03  -4.2494912e+03  -4.3927438e+03  -4.4949971e+03  -4.4827524e+03  -4.5024947e+03  -4.5437351e+03  -4.4267519e+03  -4.4107741e+03  -4.4065216e+03  -4.5452779e+03  -4.6954787e+03  -4.7679567e+03  -4.7839867e+03  -4.5722132e+03  -4.4844647e+03  -4.6049959e+03  -4.6920010e+03  -4.6720054e+03  -4.6635166e+03  -4.7495162e+03  -4.8072591e+03  -4.6509866e+03  -4.4817453e+03  -4.5955179e+03  -4.7810059e+03  -4.8252516e+03  -4.8307466e+03  -4.8277446e+03  -4.8090104e+03  -4.7545020e+03  -4.7384948e+03  -4.7310041e+03  -4.6717483e+03  -4.6769929e+03  -4.6919962e+03  -4.6522463e+03  -4.7325064e+03  -4.8672655e+03  -4.8850057e+03  -4.5197051e+03  -4.4387137e+03  -4.6635041e+03  -4.5342447e+03  -4.3997538e+03  -4.3409979e+03  -4.2167410e+03  -3.9032751e+03  -3.8512692e+03  -4.2326998e+03  -4.4146878e+03  -4.7364829e+03  -5.5309936e+03  -6.5892491e+03  -6.1687500e+03  -4.1567398e+03  -2.7979816e+03  -1.6954782e+03  -7.3899952e+02  -2.9925185e+02   4.4374824e+02   9.6799629e+02   8.6774577e+02   8.0924349e+02   9.2899563e+02   1.3329952e+03   2.2454885e+03   3.4907512e+03   3.8672708e+03   3.9875121e+03   4.0257515e+03   4.0762773e+03   4.3595319e+03   4.3114911e+03   4.2517193e+03   4.0112236e+03   3.8297365e+03   3.7617451e+03   3.7714933e+03   3.8222410e+03   3.9262376e+03   4.0627384e+03   4.1867502e+03   4.1654988e+03   3.8475003e+03   3.5022514e+03   3.3590220e+03   3.4700344e+03   3.3727518e+03   3.0509907e+03   3.2414738e+03   2.9584760e+03   2.4330050e+03   2.4102641e+03   2.3940293e+03
-4.0120026e+03  -4.0257604e+03  -4.0650020e+03  -4.1144996e+03  -4.0357589e+03  -3.9070101e+03  -3.9267545e+03  -4.0452537e+03  -4.0575047e+03  -4.0082570e+03  -4.0054974e+03  -3.9537490e+03  -3.9452564e+03  -4.0072492e+03  -3.9692444e+03  -3.9514969e+03  -3.9880009e+03  -4.0152474e+03  -4.1315130e+03  -4.1527580e+03  -4.1132445e+03  -4.1027469e+03  -3.9755091e+03  -3.9857571e+03  -4.1202500e+03  -4.0655086e+03  -3.9907652e+03  -4.1070023e+03  -4.1937276e+03  -4.2464994e+03  -4.2112541e+03  -3.9624888e+03  -4.1467592e+03  -4.2527664e+03  -4.1232523e+03  -4.1727499e+03  -4.0090032e+03  -3.9932751e+03  -3.9410513e+03  -3.9580380e+03  -4.1375082e+03  -4.1910092e+03  -4.1967639e+03  -4.1885076e+03  -4.1930047e+03  -4.1915049e+03  -4.1765022e+03  -4.1357570e+03  -4.1742555e+03  -4.1730002e+03  -4.1187557e+03  -4.1255053e+03  -4.1652484e+03  -4.1277566e+03  -4.0382728e+03  -4.0787675e+03  -4.1462450e+03  -4.0730105e+03  -4.0650155e+03  -4.1654986e+03  -4.1930070e+03  -4.2450012e+03  -4.2682492e+03  -4.1997516e+03  -4.1902476e+03  -4.1780015e+03  -4.1237583e+03  -4.0215117e+03  -3.8889911e+03  -3.7237430e+03  -3.5627706e+03  -3.4817739e+03  -3.3517727e+03  -3.1315053e+03  -3.0272382e+03  -2.9130049e+03  -2.8052723e+03  -2.7440294e+03  -2.3803174e+03  -2.1750528e+03  -2.1499880e+03  -1.4154104e+03  -1.3606596e+03  -2.0149615e+03  -2.4182292e+03  -3.2847157e+03  -4.0614524e+03  -4.3029863e+03  -4.2362523e+03  -4.0747331e+03  -4.0224749e+03  -4.1622472e+03  -4.2999992e+03  -4.4217507e+03  -4.5299963e+03  -4.5189906e+03  -4.5579947e+03  -4.6152513e+03  -4.4627412e+03  -4.3494874e+03  -4.4632173e+03  -4.6072100e+03  -4.7947524e+03  -4.8902702e+03  -4.8252555e+03  -4.7927449e+03  -4.7179908e+03  -4.6827392e+03  -4.6889996e+03  -4.6774935e+03  -4.6844792e+03  -4.7147404e+03  -4.7157584e+03  -4.6942552e+03  -4.6269769e+03  -4.5517404e+03  -4.6637665e+03  -4.7825066e+03  -4.7560177e+03  -4.8055097e+03  -4.8082397e+03  -4.7699950e+03  -4.7332563e+03  -4.6067697e+03  -4.5892675e+03  -4.7224985e+03  -4.7817366e+03  -4.6892466e+03  -4.6790038e+03  -4.7325102e+03  -4.7580186e+03  -4.7555001e+03  -4.6934877e+03  -4.6375009e+03  -4.5052609e+03  -4.3467564e+03  -4.3470010e+03  -4.3304872e+03  -4.0734421e+03  -4.0264471e+03  -4.5759848e+03  -4.7694947e+03  -4.7807588e+03  -5.6729792e+03  -6.7187261e+03  -6.1237587e+03  -4.3344762e+03  -2.9412411e+03  -1.7207671e+03  -8.0173845e+02  -2.9524890e+02   5.2248667e+02   1.1502188e+03   1.1114575e+03   9.4373077e+02   1.0004907e+03   1.4437336e+03   2.3202473e+03   3.4572552e+03   3.7142584e+03   3.8067725e+03   4.1614725e+03   4.0934691e+03   4.1992485e+03   4.4009918e+03   4.5119810e+03   4.2644780e+03   3.9292446e+03   3.8614858e+03   3.8844850e+03   3.9307383e+03   4.0649859e+03   4.3472072e+03   4.5216855e+03   4.2814790e+03   3.7727640e+03   3.3790222e+03   3.2340018e+03   3.2927493e+03   3.2295257e+03   3.1997309e+03   3.6464488e+03   3.1142443e+03   2.1587975e+03   2.1637830e+03   2.0945279e+03
-4.0042489e+03  -3.9939956e+03  -4.0582493e+03  -4.0900051e+03  -4.0097461e+03  -3.8400028e+03  -3.8915023e+03  -4.0474958e+03  -3.9507659e+03  -3.8925153e+03  -3.9787578e+03  -3.9727473e+03  -3.9459934e+03  -3.9952531e+03  -3.9742547e+03  -3.9110109e+03  -3.9722522e+03  -3.9582637e+03  -3.9600200e+03  -4.0987524e+03  -4.1175047e+03  -4.1035030e+03  -4.0104840e+03  -4.0104880e+03  -4.1045031e+03  -4.0309980e+03  -3.9589908e+03  -4.1677359e+03  -4.2620094e+03  -4.1447703e+03  -4.1212633e+03  -4.0057529e+03  -4.0930012e+03  -4.0375250e+03  -3.9332844e+03  -4.1485048e+03  -4.1164760e+03  -3.8992429e+03  -3.8404677e+03  -3.9609611e+03  -4.0902508e+03  -4.1422501e+03  -4.1212506e+03  -4.0975100e+03  -4.1265081e+03  -4.1400050e+03  -4.1652500e+03  -4.1249950e+03  -4.1202549e+03  -4.1632517e+03  -4.1049969e+03  -4.0982500e+03  -4.1480049e+03  -4.0822522e+03  -3.9904863e+03  -3.9929989e+03  -4.1072626e+03  -4.0467445e+03  -4.0092451e+03  -4.1555034e+03  -4.1250061e+03  -4.1472676e+03  -4.2067627e+03  -4.2232439e+03  -4.2192469e+03  -4.1347568e+03  -4.0585043e+03  -3.9932437e+03  -3.9315008e+03  -3.7452529e+03  -3.4627486e+03  -3.3075096e+03  -3.2120042e+03  -3.0857535e+03  -3.0402594e+03  -2.8535066e+03  -2.6132647e+03  -2.5082659e+03  -2.1674732e+03  -2.1776962e+03  -2.2212483e+03  -2.0099753e+03  -2.2274235e+03  -2.2669900e+03  -2.2975443e+03  -3.2872841e+03  -4.2597596e+03  -4.3590030e+03  -4.1940059e+03  -4.1634999e+03  -4.1347536e+03  -4.1547543e+03  -4.3234962e+03  -4.4302476e+03  -4.5627474e+03  -4.5879961e+03  -4.5817507e+03  -4.6177482e+03  -4.6042315e+03  -4.6459553e+03  -4.9379411e+03  -4.9569727e+03  -4.7142631e+03  -4.7087647e+03  -4.7442601e+03  -4.7565122e+03  -4.7470037e+03  -4.7444989e+03  -4.7254933e+03  -4.7222479e+03  -4.7562571e+03  -4.7847462e+03  -4.6710002e+03  -4.5022819e+03  -4.6410206e+03  -4.6309944e+03  -4.5862483e+03  -4.7310033e+03  -4.7252381e+03  -4.7709969e+03  -4.8172587e+03  -4.7642561e+03  -4.6780044e+03  -4.6489720e+03  -4.6774653e+03  -4.6995060e+03  -4.6997794e+03  -4.6650081e+03  -4.6530012e+03  -4.6635031e+03  -4.5732670e+03  -4.6577688e+03  -4.1973584e+03  -3.9841255e+03  -4.3275234e+03  -4.3269974e+03  -4.3395005e+03  -4.3417607e+03  -4.3205106e+03  -4.2727558e+03  -4.4802838e+03  -4.7367617e+03  -5.0396911e+03  -5.8769815e+03  -6.8787432e+03  -6.1977269e+03  -4.6539622e+03  -3.2471998e+03  -1.7579755e+03  -9.5398221e+02  -3.5074038e+02   6.7248443e+02   1.4479739e+03   1.4062358e+03   1.0989894e+03   1.0502498e+03   1.6352295e+03   2.5422098e+03   3.4497462e+03   3.7244896e+03   3.6492578e+03   4.0815432e+03   4.3829751e+03   4.4429544e+03   4.5537287e+03   4.6889849e+03   4.4029954e+03   4.0004917e+03   4.0397298e+03   4.0894754e+03   4.1942109e+03   4.3579575e+03   4.5180102e+03   4.5605575e+03   4.1313002e+03   3.7137472e+03   3.4239689e+03   3.3572243e+03   3.3194956e+03   2.9865211e+03   3.2502595e+03   3.8687587e+03   3.0750133e+03   1.9934840e+03   1.9007676e+03   1.7140455e+03
-4.0184983e+03  -4.0147503e+03  -4.0487526e+03  -4.0345057e+03  -3.9872583e+03  -3.9339788e+03  -4.0104744e+03  -4.0819975e+03  -3.9312378e+03  -3.9122307e+03  -3.9804918e+03  -3.9440083e+03  -3.9737512e+03  -4.0119936e+03  -3.9542492e+03  -3.9227367e+03  -3.9994925e+03  -3.9219933e+03  -3.8984918e+03  -4.0382594e+03  -4.0622560e+03  -4.0982480e+03  -4.1282431e+03  -4.1262395e+03  -4.1272424e+03  -4.0417500e+03  -4.0567402e+03  -4.1932592e+03  -4.1265170e+03  -4.0519977e+03  -4.0480009e+03  -4.0314920e+03  -4.1022470e+03  -4.0179785e+03  -3.8989720e+03  -4.1200007e+03  -4.1882602e+03  -3.9702433e+03  -4.0167482e+03  -4.1355052e+03  -4.1104952e+03  -4.1235035e+03  -4.0980039e+03  -4.0447502e+03  -4.0742520e+03  -4.1100008e+03  -4.1580015e+03  -4.1654972e+03  -4.1167458e+03  -4.1482512e+03  -4.1644915e+03  -4.1034990e+03  -4.0327675e+03  -4.0317577e+03  -4.0062608e+03  -3.9555084e+03  -4.0469990e+03  -4.0592531e+03  -4.0225023e+03  -4.1142546e+03  -4.1274934e+03  -4.1884742e+03  -4.2379811e+03  -4.2260057e+03  -4.2025064e+03  -4.0605076e+03  -4.0215029e+03  -4.0170018e+03  -3.9095035e+03  -3.7634936e+03  -3.4580023e+03  -3.0772853e+03  -2.9300508e+03  -2.8645396e+03  -2.6493168e+03  -2.3308453e+03  -2.0403470e+03  -2.1493040e+03  -2.3999817e+03  -2.7104504e+03  -2.6401700e+03  -2.5789139e+03  -2.7412269e+03  -2.2202692e+03  -1.7410639e+03  -2.8642981e+03  -4.2554911e+03  -4.4034883e+03  -4.2349861e+03  -4.1782472e+03  -4.1274978e+03  -4.2057357e+03  -4.5054683e+03  -4.5199849e+03  -4.5562539e+03  -4.6032509e+03  -4.5355083e+03  -4.5762599e+03  -4.7037493e+03  -4.8485056e+03  -5.0040465e+03  -4.9167854e+03  -4.6719950e+03  -4.6617443e+03  -4.7434900e+03  -4.7262436e+03  -4.6972560e+03  -4.7197559e+03  -4.7305058e+03  -4.7454976e+03  -4.7597421e+03  -4.7762555e+03  -4.6687502e+03  -4.4629755e+03  -4.5887394e+03  -4.7274868e+03  -4.6599873e+03  -4.6770072e+03  -4.7492574e+03  -4.7485075e+03  -4.7362571e+03  -4.6915080e+03  -4.6055098e+03  -4.5587959e+03  -4.6327937e+03  -4.6205094e+03  -4.5207553e+03  -4.5965052e+03  -4.6370020e+03  -4.5897613e+03  -4.5252422e+03  -4.6107402e+03  -4.0341725e+03  -3.8164061e+03  -4.1680075e+03  -4.1925289e+03  -4.3282517e+03  -4.3372401e+03  -4.3002432e+03  -4.2302525e+03  -4.2610087e+03  -4.6165117e+03  -5.3852421e+03  -6.1822091e+03  -6.9232482e+03  -6.3812375e+03  -4.9657273e+03  -3.5809856e+03  -2.1169546e+03  -1.1882223e+03  -1.5629764e+02   1.0276964e+03   1.5897487e+03   1.4157624e+03   1.1172572e+03   1.1027400e+03   1.7937397e+03   2.7142570e+03   3.4400058e+03   3.6555240e+03   3.4562798e+03   3.7822648e+03   4.2373035e+03   4.4447957e+03   4.6560016e+03   4.8184900e+03   4.5104837e+03   4.1274836e+03   4.3707058e+03   4.5559338e+03   4.5532194e+03   4.5472559e+03   4.3575211e+03   4.1250269e+03   3.9392368e+03   3.8314798e+03   3.6269918e+03   3.5334915e+03   3.3514982e+03   3.1192028e+03   3.4604494e+03   3.7040234e+03   2.9492611e+03   2.2347190e+03   1.8117497e+03   1.3165317e+03
-4.0167520e+03  -4.0132500e+03  -4.0130044e+03  -4.0082495e+03  -3.9217545e+03  -3.9197741e+03  -4.0465187e+03  -4.0412606e+03  -3.9522582e+03  -3.9390142e+03  -3.9490145e+03  -3.9484908e+03  -3.9732489e+03  -3.9892610e+03  -3.9797458e+03  -3.9969988e+03  -4.0222531e+03  -3.9942426e+03  -3.9667448e+03  -4.0107459e+03  -4.0957374e+03  -4.0987519e+03  -4.1232579e+03  -4.1102637e+03  -4.0812667e+03  -4.0847416e+03  -4.1197475e+03  -4.1402511e+03  -4.0617456e+03  -4.0252576e+03  -4.0067572e+03  -4.0545035e+03  -4.0505132e+03  -4.1280000e+03  -4.0614963e+03  -3.9855258e+03  -4.0695131e+03  -4.0884835e+03  -4.0697414e+03  -4.0717573e+03  -4.1212527e+03  -4.0992512e+03  -4.0767502e+03  -4.0704947e+03  -4.0969935e+03  -4.1297453e+03  -4.1837435e+03  -4.2084944e+03  -4.1522473e+03  -4.0595162e+03  -4.0800252e+03  -4.1042508e+03  -4.0117365e+03  -4.0019981e+03  -3.9882427e+03  -3.9987330e+03  -4.0592486e+03  -4.0332520e+03  -4.0359950e+03  -4.1117458e+03  -4.1692485e+03  -4.2910059e+03  -4.3287512e+03  -4.2377420e+03  -4.2362369e+03  -4.1277291e+03  -4.0704874e+03  -4.0357445e+03  -3.9412402e+03  -3.7165157e+03  -3.1278126e+03  -2.7972695e+03  -2.7677307e+03  -2.6607501e+03  -2.4367245e+03  -2.1056981e+03  -1.8679361e+03  -2.1132026e+03  -2.5402409e+03  -3.0839766e+03  -3.4529208e+03  -3.4326689e+03  -2.6570398e+03  -1.4403841e+03  -1.5064817e+03  -3.0709108e+03  -4.3117479e+03  -4.3612701e+03  -4.1772754e+03  -4.1150152e+03  -4.2427296e+03  -4.4182226e+03  -4.5342763e+03  -4.4917708e+03  -4.5260021e+03  -4.5907515e+03  -4.5634861e+03  -4.5712410e+03  -4.6385136e+03  -4.7212694e+03  -4.7387553e+03  -4.6930084e+03  -4.6692556e+03  -4.6855011e+03  -4.7665056e+03  -4.7684981e+03  -4.6827468e+03  -4.7029973e+03  -4.7164970e+03  -4.7624991e+03  -4.8037493e+03  -4.7562484e+03  -4.6902455e+03  -4.6189940e+03  -4.6867414e+03  -4.8177455e+03  -4.6285190e+03  -4.5985082e+03  -4.7344955e+03  -4.6822555e+03  -4.6337630e+03  -4.5495199e+03  -4.4457716e+03  -4.3092528e+03  -4.3765063e+03  -4.4945153e+03  -4.5499889e+03  -4.6094922e+03  -4.4707807e+03  -4.3490360e+03  -4.4992629e+03  -4.5750169e+03  -4.3405179e+03  -4.2180157e+03  -4.1437472e+03  -4.1322327e+03  -4.2502636e+03  -4.2630246e+03  -4.2640140e+03  -4.1947545e+03  -4.2189995e+03  -4.6019910e+03  -5.3812588e+03  -6.4872313e+03  -7.0964677e+03  -6.3502687e+03  -4.9710218e+03  -3.4415420e+03  -2.0768036e+03  -1.1830290e+03   1.8073176e+02   1.2912522e+03   1.5170156e+03   1.3957414e+03   1.1442375e+03   1.2132383e+03   1.7825126e+03   2.5040343e+03   3.1385535e+03   3.2445566e+03   3.1120377e+03   3.3920619e+03   3.8070307e+03   4.2624898e+03   4.5490195e+03   4.6792875e+03   4.6184952e+03   4.3407246e+03   4.4950202e+03   4.7245336e+03   4.5907735e+03   4.5749886e+03   4.4074689e+03   3.9917491e+03   3.9600092e+03   3.9110047e+03   3.7052429e+03   3.6077440e+03   3.4259871e+03   3.4824761e+03   3.8934659e+03   3.6212427e+03   2.7360308e+03   2.1572965e+03   1.5940432e+03   1.1087589e+03
-3.9882536e+03  -3.9642598e+03  -3.9520076e+03  -3.9887544e+03  -3.9199958e+03  -3.8579879e+03  -3.9802443e+03  -3.9957484e+03  -3.9224976e+03  -3.9034928e+03  -3.8947462e+03  -3.9582574e+03  -3.9839990e+03  -3.9962376e+03  -4.0564890e+03  -4.0477411e+03  -3.9932526e+03  -4.0080048e+03  -4.0334920e+03  -4.0439975e+03  -4.0952628e+03  -4.0767524e+03  -4.1017463e+03  -4.0340013e+03  -4.0437406e+03  -4.1849886e+03  -4.1679930e+03  -4.1424984e+03  -4.1059956e+03  -4.0502374e+03  -4.0477346e+03  -4.0847404e+03  -4.0587351e+03  -4.1472462e+03  -4.1202421e+03  -3.9862239e+03  -4.0634880e+03  -4.1597525e+03  -4.1135000e+03  -4.0622445e+03  -4.1075000e+03  -4.1109964e+03  -4.0964958e+03  -4.1014992e+03  -4.1352490e+03  -4.1719963e+03  -4.1892555e+03  -4.1990075e+03  -4.1664999e+03  -4.0089937e+03  -3.9937417e+03  -4.0425114e+03  -4.0770007e+03  -4.0309961e+03  -3.9592631e+03  -4.0125144e+03  -3.9545222e+03  -3.9045235e+03  -4.0447533e+03  -4.1065053e+03  -4.0215308e+03  -4.1065306e+03  -4.1525337e+03  -4.1297795e+03  -4.1642775e+03  -4.1860095e+03  -4.1937382e+03  -4.1529822e+03  -4.0202442e+03  -3.7372300e+03  -3.2951537e+03  -3.0994204e+03  -2.8677497e+03  -2.5660186e+03  -2.2523123e+03  -2.0578118e+03  -2.2287429e+03  -2.3832442e+03  -2.8192038e+03  -3.5111889e+03  -3.8347541e+03  -3.6822823e+03  -2.8994117e+03  -2.0239989e+03  -2.4818250e+03  -3.7562040e+03  -4.3622421e+03  -4.2475023e+03  -4.0987399e+03  -4.0564962e+03  -4.2100271e+03  -4.4012810e+03  -4.3807539e+03  -4.4562361e+03  -4.6464740e+03  -4.6897288e+03  -4.6542460e+03  -4.6274979e+03  -4.6007438e+03  -4.6150015e+03  -4.6815060e+03  -4.6472506e+03  -4.6659950e+03  -4.7072446e+03  -4.6952585e+03  -4.7272601e+03  -4.7087481e+03  -4.7317470e+03  -4.7417481e+03  -4.7315070e+03  -4.7207672e+03  -4.6925143e+03  -4.7095007e+03  -4.6759947e+03  -4.6922576e+03  -4.7447690e+03  -4.5677429e+03  -4.6039907e+03  -4.6625188e+03  -4.5897628e+03  -4.5612512e+03  -4.4684960e+03  -4.3409990e+03  -4.3139962e+03  -4.3907408e+03  -4.4444944e+03  -4.5652582e+03  -4.6032591e+03  -4.2632602e+03  -4.0957639e+03  -4.4579951e+03  -4.4495078e+03  -4.1765145e+03  -4.1290018e+03  -4.0645185e+03  -4.1225193e+03  -4.1929976e+03  -4.1674941e+03  -4.2532380e+03  -4.2029939e+03  -4.2212500e+03  -4.5897615e+03  -5.2420187e+03  -6.5327599e+03  -7.3879747e+03  -6.2959919e+03  -4.5318151e+03  -2.9785495e+03  -1.7022702e+03  -9.2652162e+02   3.9797531e+02   1.4554652e+03   1.5132350e+03   1.3817615e+03   1.2112494e+03   1.3059934e+03   1.7647408e+03   2.4284804e+03   2.7915149e+03   2.7560398e+03   2.7605317e+03   2.9597734e+03   3.4640371e+03   4.1485329e+03   4.5234854e+03   4.5737331e+03   4.6744938e+03   4.5224896e+03   4.4452395e+03   4.6557297e+03   4.5579828e+03   4.5152734e+03   4.3317964e+03   3.9517589e+03   4.0417245e+03   3.9449885e+03   3.7707442e+03   3.7134851e+03   3.5617361e+03   3.6999810e+03   3.9872658e+03   3.8532114e+03   3.0206625e+03   2.0239796e+03   1.3045139e+03   1.0852457e+03
-3.9657508e+03  -3.9072515e+03  -3.9002526e+03  -3.9620009e+03  -3.9657451e+03  -3.9117514e+03  -3.9545109e+03  -3.9782551e+03  -3.9377494e+03  -3.9212537e+03  -3.9052517e+03  -3.9205001e+03  -3.9782521e+03  -4.0492519e+03  -4.0490126e+03  -3.9995186e+03  -3.9560048e+03  -3.9610046e+03  -4.0280092e+03  -4.0212570e+03  -4.0275006e+03  -4.0635002e+03  -4.0645112e+03  -4.0632429e+03  -4.1229936e+03  -4.2380009e+03  -4.2059995e+03  -4.1042592e+03  -4.1314993e+03  -4.1649898e+03  -4.1534944e+03  -4.1307504e+03  -4.1667435e+03  -4.2329867e+03  -4.1762468e+03  -4.1434949e+03  -4.1702408e+03  -4.1150064e+03  -4.0730081e+03  -4.0657548e+03  -4.0722570e+03  -4.0957566e+03  -4.1030029e+03  -4.0952520e+03  -4.1015078e+03  -4.1462588e+03  -4.1587505e+03  -4.1420038e+03  -4.1500034e+03  -4.1387305e+03  -4.1057360e+03  -4.0979774e+03  -4.1287390e+03  -4.0420017e+03  -3.9537379e+03  -3.9697441e+03  -3.9542277e+03  -3.9414689e+03  -4.0612434e+03  -4.0974965e+03  -4.0057221e+03  -4.0339836e+03  -4.0562353e+03  -4.0932276e+03  -4.1439763e+03  -4.0940088e+03  -3.8205865e+03  -3.6323720e+03  -3.4398719e+03  -3.1786319e+03  -3.0031556e+03  -2.9083685e+03  -2.7392760e+03  -2.5629818e+03  -2.3074261e+03  -2.2281536e+03  -2.3594810e+03  -2.4227479e+03  -3.1549794e+03  -3.8007537e+03  -3.4703187e+03  -2.9956048e+03  -3.2300229e+03  -3.5869406e+03  -3.7634202e+03  -4.1942088e+03  -4.4379928e+03  -4.2747423e+03  -4.0670165e+03  -3.9912668e+03  -4.0672512e+03  -4.2862418e+03  -4.5444633e+03  -4.7082137e+03  -4.7660023e+03  -4.7297633e+03  -4.6907468e+03  -4.6512474e+03  -4.6334997e+03  -4.6832349e+03  -4.7159870e+03  -4.5452697e+03  -4.5045373e+03  -4.6477673e+03  -4.6525000e+03  -4.6642524e+03  -4.7017533e+03  -4.7372519e+03  -4.7135076e+03  -4.7059980e+03  -4.6674933e+03  -4.5972546e+03  -4.6760060e+03  -4.7057494e+03  -4.6400028e+03  -4.6352527e+03  -4.6177472e+03  -4.6135075e+03  -4.6744786e+03  -4.6697211e+03  -4.5664977e+03  -4.5227432e+03  -4.4372318e+03  -4.4344797e+03  -4.4589956e+03  -4.4350075e+03  -4.5162515e+03  -4.6302355e+03  -4.4492026e+03  -4.2834484e+03  -4.4397585e+03  -4.3590102e+03  -4.1179971e+03  -3.9380364e+03  -3.7212999e+03  -3.7493051e+03  -3.8608188e+03  -3.6211152e+03  -3.7758575e+03  -4.1287710e+03  -4.2809880e+03  -4.6029858e+03  -5.1982399e+03  -6.2862893e+03  -7.2877955e+03  -6.3227529e+03  -4.4412025e+03  -2.8384781e+03  -1.4195362e+03  -7.0327285e+02   5.3049840e+02   1.5982565e+03   1.6392400e+03   1.4087331e+03   1.2502429e+03   1.3305018e+03   1.6857750e+03   2.2083138e+03   2.4790475e+03   2.4995112e+03   2.6074986e+03   2.9474789e+03   3.4397175e+03   4.0302405e+03   4.5882517e+03   4.7597299e+03   4.6637584e+03   4.5225105e+03   4.6384719e+03   4.8277361e+03   4.6702449e+03   4.4777340e+03   4.1964803e+03   3.9492416e+03   4.0115318e+03   3.8590288e+03   3.8424915e+03   3.8077462e+03   3.6329998e+03   3.9932106e+03   4.0499715e+03   3.7490598e+03   3.0673289e+03   1.8495555e+03   1.0542860e+03   9.6477845e+02
-3.9664990e+03  -3.8835032e+03  -3.8417591e+03  -3.9602494e+03  -3.9962488e+03  -3.8570096e+03  -3.8540093e+03  -3.9472511e+03  -3.9664949e+03  -3.8842537e+03  -3.8440106e+03  -3.9112518e+03  -3.9515032e+03  -3.9645151e+03  -3.9147644e+03  -3.8765060e+03  -3.8635138e+03  -3.8287720e+03  -3.9290107e+03  -3.9522568e+03  -3.9292692e+03  -4.0167592e+03  -3.9792559e+03  -4.0260147e+03  -4.0382735e+03  -4.0735323e+03  -4.1420134e+03  -4.0712473e+03  -4.1414987e+03  -4.2294973e+03  -4.2232416e+03  -4.1969862e+03  -4.2654867e+03  -4.3239951e+03  -4.2137457e+03  -4.1969944e+03  -4.2344964e+03  -4.1677329e+03  -4.0999864e+03  -4.0567469e+03  -4.0732427e+03  -4.0560013e+03  -4.0277622e+03  -4.0710028e+03  -4.0804964e+03  -4.0925019e+03  -4.1280056e+03  -4.1102526e+03  -4.1240018e+03  -4.1782617e+03  -4.1510050e+03  -4.1365150e+03  -4.0987672e+03  -4.0522462e+03  -4.0464935e+03  -4.0197459e+03  -4.0687494e+03  -4.0932508e+03  -4.1039981e+03  -4.0947541e+03  -4.1022587e+03  -4.1122508e+03  -4.0642633e+03  -4.1235165e+03  -4.2792466e+03  -4.3036988e+03  -4.0796105e+03  -3.8345861e+03  -3.3144023e+03  -2.6079821e+03  -2.4751995e+03  -2.7806562e+03  -2.9686775e+03  -3.0229256e+03  -2.9409468e+03  -2.7314958e+03  -2.3025306e+03  -2.6094644e+03  -3.5406930e+03  -3.8499863e+03  -3.0370180e+03  -2.0808288e+03  -2.7793178e+03  -3.7830204e+03  -4.1040118e+03  -4.3300142e+03  -4.3675215e+03  -4.2575113e+03  -4.0674833e+03  -4.0462219e+03  -4.2574604e+03  -4.4519749e+03  -4.6945068e+03  -4.8085164e+03  -4.7350039e+03  -4.6772471e+03  -4.6977519e+03  -4.7047419e+03  -4.6852399e+03  -4.7585001e+03  -4.7859990e+03  -4.5977195e+03  -4.5464539e+03  -4.6544811e+03  -4.6492507e+03  -4.6442516e+03  -4.6632544e+03  -4.7314992e+03  -4.7302390e+03  -4.7587414e+03  -4.7182465e+03  -4.5777492e+03  -4.5972598e+03  -4.6310157e+03  -4.5785096e+03  -4.5862571e+03  -4.6362491e+03  -4.5577537e+03  -4.6332799e+03  -4.6955240e+03  -4.6212413e+03  -4.5397535e+03  -4.5369983e+03  -4.6019867e+03  -4.2265513e+03  -4.1572984e+03  -4.4670084e+03  -4.6305146e+03  -4.5227830e+03  -4.3585369e+03  -4.3687557e+03  -4.2452627e+03  -4.0050257e+03  -3.5135489e+03  -3.1785591e+03  -3.2410469e+03  -3.3317873e+03  -3.2224642e+03  -3.5516867e+03  -4.1249795e+03  -4.3212540e+03  -4.6415066e+03  -5.3324832e+03  -6.1892299e+03  -6.8777867e+03  -6.1000420e+03  -4.5820196e+03  -2.8907615e+03  -1.2537469e+03  -5.5925600e+02   4.0377717e+02   1.2733089e+03   1.5630255e+03   1.5157455e+03   1.3257420e+03   1.3712400e+03   1.6677284e+03   2.0984578e+03   2.4509578e+03   2.5814722e+03   2.7482230e+03   3.1404824e+03   3.5010205e+03   3.9205318e+03   4.5220116e+03   4.7775167e+03   4.6622418e+03   4.6512135e+03   4.7565045e+03   4.9254944e+03   4.8082274e+03   4.5512514e+03   4.3369915e+03   4.1639652e+03   3.9619779e+03   3.7167496e+03   3.7727726e+03   3.6965263e+03   3.6999867e+03   4.1055171e+03   3.7610870e+03   2.8873635e+03   2.2573337e+03   1.4062834e+03   8.0226447e+02   7.2077052e+02
-3.9260093e+03  -3.8709993e+03  -3.8487394e+03  -3.9572512e+03  -3.9765052e+03  -3.8322454e+03  -3.8457423e+03  -3.9544975e+03  -3.9892506e+03  -3.9014928e+03  -3.8344913e+03  -3.8217664e+03  -3.8377699e+03  -3.8904998e+03  -3.8599966e+03  -3.8617469e+03  -3.8417405e+03  -3.7944848e+03  -3.8782495e+03  -3.9337469e+03  -3.9219821e+03  -3.9295084e+03  -3.8840134e+03  -4.0144875e+03  -4.0694699e+03  -4.0447233e+03  -4.1274894e+03  -4.1319903e+03  -4.2094875e+03  -4.2447496e+03  -4.2450041e+03  -4.2967436e+03  -4.3519958e+03  -4.3467504e+03  -4.2749919e+03  -4.2597429e+03  -4.2472511e+03  -4.2380029e+03  -4.1949944e+03  -4.1489843e+03  -4.1579901e+03  -4.1219853e+03  -4.0487334e+03  -3.9262766e+03  -3.9832734e+03  -4.1039957e+03  -4.0877525e+03  -4.1207453e+03  -4.1579913e+03  -4.1334973e+03  -4.1232506e+03  -4.0417541e+03  -4.0267473e+03  -4.1207399e+03  -4.0777502e+03  -4.1019874e+03  -4.0495045e+03  -3.9662751e+03  -4.0750078e+03  -4.0774994e+03  -4.0217576e+03  -3.9620298e+03  -3.8895222e+03  -3.9077772e+03  -3.8710864e+03  -3.6814281e+03  -3.7949486e+03  -4.0271261e+03  -3.9112272e+03  -3.5255815e+03  -3.3723685e+03  -3.2502491e+03  -3.1487865e+03  -3.3137659e+03  -3.1002713e+03  -2.3378343e+03  -1.9957815e+03  -2.9634639e+03  -3.3823397e+03  -3.2678822e+03  -2.6745555e+03  -1.7647348e+03  -2.4674950e+03  -3.5972672e+03  -4.0717447e+03  -4.1670188e+03  -4.1210285e+03  -4.1787546e+03  -4.2824732e+03  -4.3327201e+03  -4.4225064e+03  -4.5107634e+03  -4.6162591e+03  -4.6860083e+03  -4.7067518e+03  -4.7067469e+03  -4.6979981e+03  -4.7250041e+03  -4.7327506e+03  -4.5620398e+03  -4.4975597e+03  -4.6872626e+03  -4.7782493e+03  -4.7177561e+03  -4.6285036e+03  -4.6280017e+03  -4.6582466e+03  -4.7190034e+03  -4.7687533e+03  -4.7685067e+03  -4.6995073e+03  -4.5952472e+03  -4.5467504e+03  -4.5207566e+03  -4.4920079e+03  -4.5082587e+03  -4.6192543e+03  -4.5702437e+03  -4.4974975e+03  -4.5997453e+03  -4.6307569e+03  -4.5309983e+03  -4.5804929e+03  -4.6490039e+03  -4.2346966e+03  -4.0934641e+03  -4.2930269e+03  -4.3427938e+03  -4.2205282e+03  -4.0167823e+03  -4.0250641e+03  -3.9560460e+03  -3.6650432e+03  -3.3149911e+03  -3.1586944e+03  -3.1297254e+03  -3.1390016e+03  -3.4194960e+03  -3.8415049e+03  -4.0890280e+03  -4.2840036e+03  -4.8142083e+03  -5.6866950e+03  -6.5919384e+03  -6.8287229e+03  -5.8142657e+03  -4.3447785e+03  -2.6672838e+03  -1.2192601e+03  -4.7526103e+02   3.7547835e+02   1.1132231e+03   1.4332507e+03   1.4770124e+03   1.4094911e+03   1.4867366e+03   1.7912467e+03   2.2890039e+03   2.6050113e+03   2.6850070e+03   2.9507360e+03   3.1125235e+03   3.0448221e+03   3.3985741e+03   4.3145305e+03   4.6672555e+03   4.5857738e+03   4.7117745e+03   4.7649937e+03   4.9290050e+03   4.8102724e+03   4.6114864e+03   4.5139726e+03   4.4897188e+03   4.2152208e+03   3.7127512e+03   3.5660192e+03   3.5640004e+03   3.7819967e+03   3.9945053e+03   3.4799694e+03   2.5127117e+03   1.7900106e+03   1.1837615e+03   7.4199766e+02   5.9850417e+02
-3.8824996e+03  -3.8437563e+03  -3.8397626e+03  -3.9160073e+03  -3.9090086e+03  -3.8789951e+03  -3.8730022e+03  -3.8880162e+03  -3.9717530e+03  -3.9822407e+03  -3.9114930e+03  -3.7999879e+03  -3.8117353e+03  -3.9192443e+03  -3.9237403e+03  -3.9062440e+03  -3.9067463e+03  -3.8839970e+03  -3.8887483e+03  -3.9062588e+03  -3.9540115e+03  -3.9747322e+03  -3.9684692e+03  -4.1939758e+03  -4.3004830e+03  -4.2249900e+03  -4.1972464e+03  -4.1680024e+03  -4.2687505e+03  -4.3077374e+03  -4.2864874e+03  -4.3265003e+03  -4.4114920e+03  -4.3802428e+03  -4.2252684e+03  -4.2660058e+03  -4.2722438e+03  -4.2032542e+03  -4.1972552e+03  -4.1842586e+03  -4.1877538e+03  -4.1720046e+03  -4.0900083e+03  -3.8909804e+03  -3.9467339e+03  -4.0690115e+03  -4.0592533e+03  -4.1312526e+03  -4.1675069e+03  -4.1190057e+03  -4.1444951e+03  -4.1094820e+03  -4.0529973e+03  -4.1337575e+03  -4.0887476e+03  -4.1240082e+03  -4.0592435e+03  -3.8949893e+03  -3.9807614e+03  -4.0142636e+03  -3.9520067e+03  -3.8272476e+03  -3.7512560e+03  -3.8012444e+03  -3.7626851e+03  -3.4296220e+03  -3.3366437e+03  -3.7299337e+03  -4.1574725e+03  -4.3092593e+03  -4.1517229e+03  -3.4942009e+03  -2.7792889e+03  -2.6573685e+03  -2.3771268e+03  -1.9312483e+03  -2.4061341e+03  -3.3949479e+03  -3.4081542e+03  -3.2436216e+03  -2.7009386e+03  -2.4408767e+03  -3.2211005e+03  -3.7529507e+03  -4.0290141e+03  -4.0390073e+03  -4.0067447e+03  -4.1157582e+03  -4.3110212e+03  -4.3632739e+03  -4.3412602e+03  -4.4509988e+03  -4.5929956e+03  -4.6604968e+03  -4.6997496e+03  -4.7207503e+03  -4.7002515e+03  -4.6927525e+03  -4.7235013e+03  -4.5482126e+03  -4.4744446e+03  -4.6957356e+03  -4.7580048e+03  -4.6832509e+03  -4.6137494e+03  -4.6047530e+03  -4.6622526e+03  -4.7117481e+03  -4.7305045e+03  -4.6867600e+03  -4.6654996e+03  -4.6319953e+03  -4.5387513e+03  -4.4822513e+03  -4.4884927e+03  -4.5164895e+03  -4.6092477e+03  -4.6064989e+03  -4.2665499e+03  -4.3128136e+03  -4.5170164e+03  -4.4855111e+03  -4.5645105e+03  -4.5405183e+03  -4.4500097e+03  -4.2989941e+03  -4.0880149e+03  -3.9600343e+03  -3.9082856e+03  -3.7382745e+03  -3.6250173e+03  -3.6385187e+03  -3.4932416e+03  -3.4237367e+03  -3.3730121e+03  -3.3552286e+03  -3.4194409e+03  -3.5357302e+03  -3.8272480e+03  -4.0952205e+03  -4.3424844e+03  -4.9637614e+03  -5.8485223e+03  -6.8332627e+03  -6.8840160e+03  -5.5762829e+03  -3.9952929e+03  -2.1898138e+03  -8.2457071e+02  -2.4428623e+02   4.6425364e+02   1.2192554e+03   1.4270006e+03   1.4359959e+03   1.4842437e+03   1.5435018e+03   1.8099995e+03   2.2844970e+03   2.6912209e+03   2.8434604e+03   2.9787584e+03   2.8367828e+03   2.5385311e+03   2.8147949e+03   3.9412958e+03   4.7047367e+03   4.6287172e+03   4.5345116e+03   4.5802942e+03   4.7562804e+03   4.7172465e+03   4.5777706e+03   4.4450418e+03   4.4377921e+03   4.3649988e+03   3.8172274e+03   3.4827477e+03   3.6644790e+03   3.8104974e+03   3.7447959e+03   3.6452470e+03   3.2141448e+03   2.1451665e+03   1.2404767e+03   8.1898658e+02   5.3925794e+02
-3.8672536e+03  -3.8267472e+03  -3.7937468e+03  -3.8360092e+03  -3.8635007e+03  -3.8962514e+03  -3.8055118e+03  -3.7350153e+03  -3.9080101e+03  -4.0110034e+03  -3.9395012e+03  -3.8884939e+03  -3.9044957e+03  -3.9422510e+03  -3.9692504e+03  -3.9227526e+03  -3.8725108e+03  -3.9284938e+03  -3.9344923e+03  -3.8824961e+03  -3.9434906e+03  -4.0397545e+03  -4.1432450e+03  -4.2105210e+03  -4.2257826e+03  -4.2982450e+03  -4.3792161e+03  -4.2357336e+03  -4.1912655e+03  -4.3150112e+03  -4.3285040e+03  -4.3262497e+03  -4.4627475e+03  -4.4394950e+03  -4.2089848e+03  -4.2827407e+03  -4.3439914e+03  -4.2374887e+03  -4.1260095e+03  -4.1240038e+03  -4.1834970e+03  -4.1297541e+03  -4.1352323e+03  -4.0862294e+03  -4.0297491e+03  -3.9947538e+03  -4.0130062e+03  -4.0882563e+03  -4.0742623e+03  -4.0999981e+03  -4.1999935e+03  -4.0125382e+03  -3.9295282e+03  -4.1132466e+03  -4.0860030e+03  -4.0095154e+03  -4.0012685e+03  -3.9445005e+03  -3.9439961e+03  -4.0047383e+03  -3.9659904e+03  -3.8812413e+03  -3.6892568e+03  -3.6445380e+03  -3.8173042e+03  -3.8612899e+03  -3.6860350e+03  -3.9887634e+03  -4.2630059e+03  -3.7331097e+03  -3.7296146e+03  -3.8262309e+03  -3.0604027e+03  -2.1429868e+03  -1.6905141e+03  -2.2216917e+03  -3.1717086e+03  -3.5507703e+03  -3.3131162e+03  -3.2686243e+03  -3.1537183e+03  -3.5244004e+03  -4.1724541e+03  -4.1387200e+03  -4.0239868e+03  -4.0005006e+03  -4.0250015e+03  -4.0332587e+03  -4.1270166e+03  -4.2235048e+03  -4.3424895e+03  -4.4747463e+03  -4.6050020e+03  -4.6622528e+03  -4.6592587e+03  -4.6655112e+03  -4.6482592e+03  -4.6472569e+03  -4.7032528e+03  -4.7187524e+03  -4.7030087e+03  -4.6350271e+03  -4.6072763e+03  -4.6150132e+03  -4.5660104e+03  -4.5967486e+03  -4.6594979e+03  -4.7135015e+03  -4.7332449e+03  -4.6787416e+03  -4.6312575e+03  -4.5897635e+03  -4.5115043e+03  -4.4647523e+03  -4.4335187e+03  -4.3950356e+03  -4.5095229e+03  -4.6124999e+03  -4.2831962e+03  -4.2367016e+03  -4.4944881e+03  -4.4892381e+03  -4.5032521e+03  -4.5229851e+03  -4.4632374e+03  -4.3227511e+03  -4.1579706e+03  -4.0099551e+03  -3.8472267e+03  -3.6657402e+03  -3.6049867e+03  -3.5807431e+03  -3.4802611e+03  -3.4780022e+03  -3.3849853e+03  -3.5617289e+03  -3.7809849e+03  -3.7102339e+03  -3.9532260e+03  -4.2587459e+03  -4.4050028e+03  -4.7970229e+03  -5.6625159e+03  -6.8807274e+03  -6.8212468e+03  -5.3412653e+03  -3.7969977e+03  -2.0204707e+03  -4.9349711e+02   1.0146508e+02   5.7072433e+02   1.2097465e+03   1.3682615e+03   1.3840149e+03   1.4767579e+03   1.6139836e+03   1.9384740e+03   2.4424703e+03   2.9082345e+03   3.0779914e+03   2.8290225e+03   2.4777911e+03   2.3307616e+03   2.4962705e+03   3.4560541e+03   4.5942862e+03   4.7622555e+03   4.5439864e+03   4.4517320e+03   4.4595307e+03   4.5192945e+03   4.3255313e+03   4.1572673e+03   4.1020270e+03   4.1065547e+03   3.8750108e+03   3.6604656e+03   3.9517118e+03   4.0044625e+03   3.5802378e+03   3.6342553e+03   3.7742403e+03   2.8734337e+03   1.5269643e+03   7.7927175e+02   4.9425129e+02
-3.7992606e+03  -3.7632661e+03  -3.7832554e+03  -3.8399899e+03  -3.8892439e+03  -3.9489876e+03  -3.7942405e+03  -3.7142389e+03  -3.8804955e+03  -3.9190157e+03  -3.8825106e+03  -3.8712597e+03  -3.8770101e+03  -3.9140049e+03  -3.9450047e+03  -3.8945032e+03  -3.8277484e+03  -3.9020118e+03  -3.9420062e+03  -3.9414917e+03  -3.9855007e+03  -4.0180000e+03  -4.1694996e+03  -4.1459923e+03  -4.0884957e+03  -4.2582634e+03  -4.4107777e+03  -4.3329963e+03  -4.1762375e+03  -4.2532516e+03  -4.2520119e+03  -4.2177729e+03  -4.3697719e+03  -4.4165098e+03  -4.1960180e+03  -4.2180229e+03  -4.3919986e+03  -4.2747536e+03  -4.1344886e+03  -4.1349939e+03  -4.1945007e+03  -4.1104999e+03  -4.1302689e+03  -3.9218050e+03  -3.8285428e+03  -4.0147420e+03  -3.9897486e+03  -3.9925136e+03  -4.0027524e+03  -4.0645093e+03  -4.0777820e+03  -3.9637216e+03  -4.0292008e+03  -4.0062757e+03  -3.9562740e+03  -3.9559956e+03  -3.8940036e+03  -3.9959888e+03  -4.0642289e+03  -3.9567718e+03  -3.5128541e+03  -3.4021086e+03  -3.5370249e+03  -3.4857447e+03  -3.2805572e+03  -3.4410473e+03  -3.7237068e+03  -3.8937563e+03  -4.0525379e+03  -3.5066865e+03  -3.2612320e+03  -3.3643654e+03  -3.1538287e+03  -2.6074166e+03  -2.3426000e+03  -2.8759225e+03  -3.4759783e+03  -3.1373157e+03  -1.9679130e+03  -1.7384435e+03  -2.9195807e+03  -4.1169770e+03  -4.4094969e+03  -4.2452581e+03  -4.0777521e+03  -4.0014992e+03  -3.9877562e+03  -3.9775028e+03  -4.0727445e+03  -4.2109978e+03  -4.3627564e+03  -4.4989986e+03  -4.5810030e+03  -4.6095081e+03  -4.5692599e+03  -4.5400149e+03  -4.5540103e+03  -4.5795072e+03  -4.6395104e+03  -4.6607596e+03  -4.6547513e+03  -4.5827336e+03  -4.5897271e+03  -4.6309833e+03  -4.5957333e+03  -4.6222461e+03  -4.6450051e+03  -4.6870040e+03  -4.7487519e+03  -4.7017537e+03  -4.5820027e+03  -4.5220005e+03  -4.4730036e+03  -4.4417524e+03  -4.4602256e+03  -4.3792174e+03  -4.4132469e+03  -4.5377657e+03  -4.4625169e+03  -4.4475049e+03  -4.5260054e+03  -4.4650171e+03  -4.3905213e+03  -4.4905218e+03  -4.5307486e+03  -4.4044819e+03  -4.2862530e+03  -4.1520157e+03  -3.9205082e+03  -3.6305172e+03  -3.5217808e+03  -3.5462641e+03  -3.4617427e+03  -3.5824760e+03  -3.6444607e+03  -3.7299863e+03  -3.9079888e+03  -3.9557151e+03  -4.0854967e+03  -4.2252611e+03  -4.4172446e+03  -4.7512364e+03  -5.6957270e+03  -7.1132243e+03  -6.8632444e+03  -5.2137611e+03  -3.6982729e+03  -2.0227791e+03  -4.8675432e+02   3.1499073e+02   7.9397938e+02   1.2354981e+03   1.2295173e+03   1.2515126e+03   1.5564754e+03   1.7782323e+03   2.0862455e+03   2.6857292e+03   2.9712526e+03   3.0017745e+03   2.6860071e+03   2.2929971e+03   2.2702509e+03   2.3725051e+03   3.1047686e+03   4.3002747e+03   4.6935087e+03   4.5022724e+03   4.4025284e+03   4.2435141e+03   4.3044999e+03   4.1929960e+03   4.0490051e+03   3.9645015e+03   3.8202545e+03   3.8482446e+03   3.8679915e+03   4.0385204e+03   3.9897909e+03   3.4707851e+03   3.5550111e+03   3.8959844e+03   3.1330128e+03   1.6015205e+03   6.6375214e+02   4.5700646e+02
-3.7112578e+03  -3.7062457e+03  -3.7467523e+03  -3.8077670e+03  -3.8312683e+03  -3.9255174e+03  -3.7752636e+03  -3.7959940e+03  -3.9617375e+03  -3.7810131e+03  -3.7340205e+03  -3.7700114e+03  -3.7797602e+03  -3.8637556e+03  -3.8925063e+03  -3.8595041e+03  -3.8522465e+03  -3.7425216e+03  -3.8347662e+03  -3.9787506e+03  -3.9425083e+03  -3.9707599e+03  -4.0890173e+03  -4.1715024e+03  -4.1442426e+03  -4.1240147e+03  -4.1970170e+03  -4.3917414e+03  -4.2887390e+03  -4.2090077e+03  -4.2239939e+03  -4.1722365e+03  -4.2612507e+03  -4.3562528e+03  -4.1894832e+03  -4.1334946e+03  -4.3065193e+03  -4.2200079e+03  -4.1777524e+03  -4.1807466e+03  -4.1895003e+03  -4.1704875e+03  -4.0879898e+03  -3.8472102e+03  -3.8129601e+03  -3.9960120e+03  -3.9870020e+03  -3.9692411e+03  -4.0067467e+03  -3.8715312e+03  -3.7400386e+03  -3.9732766e+03  -4.0787892e+03  -3.8085156e+03  -3.8452491e+03  -3.9382581e+03  -3.8165126e+03  -3.8455429e+03  -3.8098247e+03  -3.6372951e+03  -3.0662388e+03  -2.9769797e+03  -3.0260822e+03  -2.8633860e+03  -2.9040214e+03  -3.3884634e+03  -4.0279796e+03  -3.7967640e+03  -3.7190318e+03  -3.8494920e+03  -3.6324402e+03  -2.5895463e+03  -2.4113266e+03  -3.2976892e+03  -3.4056780e+03  -3.4929486e+03  -3.7799580e+03  -3.1654279e+03  -1.8211164e+03  -1.3476370e+03  -2.6967154e+03  -4.2387476e+03  -4.4597426e+03  -4.2357439e+03  -4.0400058e+03  -3.9672580e+03  -3.9709973e+03  -3.9912443e+03  -4.1399914e+03  -4.2857365e+03  -4.3599941e+03  -4.4837546e+03  -4.5595015e+03  -4.5844971e+03  -4.5484943e+03  -4.4692498e+03  -4.4582597e+03  -4.5002594e+03  -4.5455092e+03  -4.5837565e+03  -4.6380022e+03  -4.6580007e+03  -4.7252446e+03  -4.7734869e+03  -4.7307385e+03  -4.6717435e+03  -4.6319976e+03  -4.6580021e+03  -4.7020079e+03  -4.6512569e+03  -4.5507538e+03  -4.4965048e+03  -4.4482515e+03  -4.4247511e+03  -4.5000163e+03  -4.5497471e+03  -4.5014846e+03  -4.4822459e+03  -4.4874777e+03  -4.4937354e+03  -4.4857530e+03  -4.3914982e+03  -4.2550069e+03  -4.2850212e+03  -4.4087770e+03  -4.4250140e+03  -4.2542537e+03  -4.0220114e+03  -3.8535058e+03  -3.6949691e+03  -3.5922042e+03  -3.6154712e+03  -3.5812323e+03  -3.6800037e+03  -3.7940082e+03  -3.7390120e+03  -3.8660202e+03  -4.0650123e+03  -4.0845036e+03  -4.1667511e+03  -4.5509773e+03  -5.0252062e+03  -5.8692367e+03  -7.1487684e+03  -6.9139950e+03  -5.2162383e+03  -3.6194935e+03  -1.8270118e+03  -3.9951396e+02   3.9249307e+02   8.7750325e+02   1.0582891e+03   1.0532696e+03   1.2367404e+03   1.6797489e+03   1.8622502e+03   2.0635093e+03   2.5700452e+03   2.7475444e+03   2.7635253e+03   2.5977614e+03   2.2877540e+03   2.2652502e+03   2.3574980e+03   3.1457227e+03   4.2097441e+03   4.4842851e+03   4.3982492e+03   4.3382348e+03   4.1909969e+03   4.2775058e+03   4.1565117e+03   3.9830087e+03   3.9440028e+03   3.7055195e+03   3.7177828e+03   3.8760069e+03   3.9567466e+03   3.8939789e+03   3.4412208e+03   3.3652786e+03   3.3158876e+03   2.6598365e+03   1.5814835e+03   6.7699507e+02   4.2924932e+02
-3.7084927e+03  -3.6752608e+03  -3.6820114e+03  -3.6622637e+03  -3.7217547e+03  -3.9142348e+03  -3.8124784e+03  -3.8939853e+03  -4.0629912e+03  -3.7792371e+03  -3.6732422e+03  -3.7010031e+03  -3.7379985e+03  -3.8360002e+03  -3.9024915e+03  -3.9099852e+03  -3.8647509e+03  -3.6727430e+03  -3.7370043e+03  -3.8127846e+03  -3.8507611e+03  -3.9529938e+03  -3.9942526e+03  -4.1315060e+03  -4.1387586e+03  -4.0862432e+03  -4.1929837e+03  -4.2455396e+03  -4.2170262e+03  -4.2234892e+03  -4.1982616e+03  -4.1817616e+03  -4.1827659e+03  -4.2960099e+03  -4.2712496e+03  -4.2234863e+03  -4.1912549e+03  -4.1022670e+03  -4.1127614e+03  -4.1640070e+03  -4.1867503e+03  -4.1850095e+03  -4.0952587e+03  -4.0539964e+03  -4.0342434e+03  -3.9582459e+03  -3.9012661e+03  -3.9292674e+03  -3.9675116e+03  -3.8092317e+03  -3.7512087e+03  -3.8612469e+03  -3.8637560e+03  -3.8059848e+03  -3.8514996e+03  -3.9232450e+03  -3.7962416e+03  -3.4832834e+03  -2.9353598e+03  -2.7011527e+03  -2.4568903e+03  -2.5571093e+03  -2.9679294e+03  -2.9758390e+03  -3.1969164e+03  -3.6079905e+03  -3.7675757e+03  -3.5567867e+03  -3.6699783e+03  -3.9249921e+03  -3.9994826e+03  -2.8054076e+03  -2.5748881e+03  -3.7547146e+03  -3.8422302e+03  -3.6392709e+03  -3.8687735e+03  -3.7991886e+03  -2.9548947e+03  -2.7633143e+03  -3.5763487e+03  -4.3997183e+03  -4.5024984e+03  -4.2077621e+03  -3.9862556e+03  -3.9527450e+03  -4.0219920e+03  -4.0722386e+03  -4.2259905e+03  -4.3110083e+03  -4.3969981e+03  -4.5339848e+03  -4.6037392e+03  -4.6362420e+03  -4.5662520e+03  -4.4510040e+03  -4.4015022e+03  -4.4589993e+03  -4.5015000e+03  -4.5412525e+03  -4.6135030e+03  -4.6644979e+03  -4.7480006e+03  -4.7825113e+03  -4.7335110e+03  -4.6702568e+03  -4.6285032e+03  -4.6275043e+03  -4.6112613e+03  -4.6242488e+03  -4.5674926e+03  -4.4487552e+03  -4.4122561e+03  -4.3915059e+03  -4.4007546e+03  -4.4940147e+03  -4.5145128e+03  -4.4217670e+03  -4.5295135e+03  -4.5644998e+03  -4.4657512e+03  -4.3635077e+03  -4.0485367e+03  -3.4806489e+03  -3.5494047e+03  -4.1847868e+03  -4.1717637e+03  -3.8977648e+03  -3.7077750e+03  -3.7145270e+03  -3.8100001e+03  -3.7969906e+03  -3.6884951e+03  -3.7174884e+03  -3.8492301e+03  -3.8467151e+03  -3.9169689e+03  -4.0202471e+03  -4.1177394e+03  -4.2642283e+03  -4.6477524e+03  -5.1522673e+03  -5.9802399e+03  -7.0952428e+03  -6.7015501e+03  -4.9075771e+03  -3.3283182e+03  -1.7844971e+03  -5.4220571e+02   3.3626889e+02   8.3950476e+02   9.2723831e+02   9.3325566e+02   1.0882911e+03   1.5190351e+03   1.8397546e+03   2.0867357e+03   2.3270058e+03   2.4435196e+03   2.6574969e+03   2.5662452e+03   2.2874960e+03   2.2862454e+03   2.4614800e+03   3.2929964e+03   4.2654942e+03   4.4962121e+03   4.4694857e+03   4.4257468e+03   4.3164766e+03   4.2924910e+03   4.0822540e+03   3.9662448e+03   3.9212520e+03   3.6087508e+03   3.4742685e+03   3.7077786e+03   3.9335084e+03   3.8217866e+03   3.6917265e+03   3.2769898e+03   2.3530651e+03   1.8798279e+03   1.3213217e+03   6.1876730e+02   3.9375820e+02
-3.7200049e+03  -3.5685118e+03  -3.5895082e+03  -3.5812535e+03  -3.6387630e+03  -3.9542568e+03  -3.6083153e+03  -3.3453819e+03  -3.6950874e+03  -3.7530186e+03  -3.6922538e+03  -3.6522573e+03  -3.7072581e+03  -3.8172538e+03  -3.8862620e+03  -3.9117646e+03  -3.8507521e+03  -3.7472412e+03  -3.7454938e+03  -3.7199850e+03  -3.8244945e+03  -3.9670033e+03  -3.9717522e+03  -4.0290158e+03  -4.0020205e+03  -4.0320185e+03  -4.1902670e+03  -4.0272567e+03  -4.0175161e+03  -4.1385290e+03  -4.0710155e+03  -4.0952568e+03  -4.0525117e+03  -4.1230269e+03  -4.1995157e+03  -4.2150156e+03  -4.0090339e+03  -3.9430169e+03  -4.0497520e+03  -4.0250226e+03  -4.0710244e+03  -4.0685153e+03  -4.0687469e+03  -4.0912457e+03  -3.9950150e+03  -3.9232616e+03  -3.8892363e+03  -3.9062374e+03  -3.8905047e+03  -3.8897512e+03  -3.9692451e+03  -3.9014946e+03  -3.7867604e+03  -3.7052869e+03  -3.3498575e+03  -3.0409433e+03  -3.0779118e+03  -3.2377687e+03  -3.1106019e+03  -2.9640399e+03  -2.8585229e+03  -2.9268109e+03  -3.3092483e+03  -3.3798261e+03  -3.4997697e+03  -3.6422523e+03  -3.4237471e+03  -3.3909984e+03  -3.6815194e+03  -3.5050976e+03  -3.6425936e+03  -3.6041727e+03  -3.4699218e+03  -3.7032967e+03  -3.7070489e+03  -2.9601238e+03  -2.6162435e+03  -2.9827361e+03  -3.2217992e+03  -3.9774282e+03  -4.4189728e+03  -4.5065092e+03  -4.4465135e+03  -4.1657467e+03  -3.9904935e+03  -4.0332379e+03  -4.0902435e+03  -4.1722401e+03  -4.2352576e+03  -4.2782487e+03  -4.4414924e+03  -4.5940026e+03  -4.6337545e+03  -4.6027652e+03  -4.5197579e+03  -4.4414980e+03  -4.3905001e+03  -4.4215087e+03  -4.4707566e+03  -4.5027557e+03  -4.5617581e+03  -4.6330089e+03  -4.6990098e+03  -4.6945074e+03  -4.6757512e+03  -4.6322512e+03  -4.5690095e+03  -4.5267671e+03  -4.4987626e+03  -4.5725123e+03  -4.5467619e+03  -4.3952561e+03  -4.3515068e+03  -4.3487531e+03  -4.3782502e+03  -4.3897574e+03  -4.4592489e+03  -4.4854693e+03  -4.5427335e+03  -4.5687493e+03  -4.4912433e+03  -4.3499951e+03  -3.8317592e+03  -3.0486920e+03  -3.2401600e+03  -4.0100002e+03  -4.0135199e+03  -3.8227511e+03  -3.5115166e+03  -3.4762736e+03  -3.7795064e+03  -3.8654949e+03  -3.8222264e+03  -3.8804770e+03  -3.9559973e+03  -3.9800067e+03  -4.0412549e+03  -4.0769908e+03  -4.1844965e+03  -4.3027637e+03  -4.5927593e+03  -5.1419847e+03  -6.0404973e+03  -7.0975068e+03  -6.4947437e+03  -4.5707441e+03  -3.0777347e+03  -1.8649857e+03  -6.1652880e+02   3.6072573e+02   8.0450267e+02   9.7125240e+02   8.6325923e+02   9.4573896e+02   1.3205069e+03   1.6910271e+03   2.2577280e+03   2.5237022e+03   2.5334611e+03   2.8379646e+03   2.6912282e+03   2.4579677e+03   2.4552186e+03   2.6467306e+03   3.3982312e+03   4.2652559e+03   4.6407574e+03   4.5187539e+03   4.3117776e+03   4.2390401e+03   4.2625155e+03   4.1179884e+03   3.9907501e+03   3.8542623e+03   3.5745065e+03   3.4079955e+03   3.5645017e+03   3.9387405e+03   3.4302967e+03   3.0311647e+03   2.5839081e+03   1.6335879e+03   1.2195623e+03   7.5529848e+02   4.8626083e+02   4.2973405e+02
-3.6830030e+03  -3.5762364e+03  -3.5679963e+03  -3.5999925e+03  -3.5595040e+03  -3.7620345e+03  -3.2962512e+03  -2.8987131e+03  -3.3054957e+03  -3.5325287e+03  -3.6287598e+03  -3.6697389e+03  -3.7597306e+03  -3.8322430e+03  -3.8397479e+03  -3.8345019e+03  -3.8410000e+03  -3.8469874e+03  -3.7322591e+03  -3.7212649e+03  -3.8370029e+03  -3.8870139e+03  -3.9245080e+03  -3.9307552e+03  -3.9139983e+03  -3.9549980e+03  -4.0552619e+03  -3.8970213e+03  -3.6230686e+03  -3.6865679e+03  -3.8790257e+03  -3.9717697e+03  -3.9900016e+03  -3.9989996e+03  -4.0257716e+03  -4.0442710e+03  -3.5993039e+03  -3.5243230e+03  -3.8962810e+03  -3.8812581e+03  -3.9110098e+03  -3.9527595e+03  -4.0107656e+03  -3.9650315e+03  -3.8902574e+03  -3.9174896e+03  -3.9397530e+03  -3.9210096e+03  -3.9102410e+03  -3.9419875e+03  -3.9937496e+03  -3.9722403e+03  -3.7687434e+03  -3.5514959e+03  -2.8949895e+03  -2.5369135e+03  -3.0088518e+03  -3.5886557e+03  -3.9302231e+03  -3.7962828e+03  -3.7722825e+03  -3.8904834e+03  -3.2637614e+03  -2.3271496e+03  -2.7089002e+03  -3.6245015e+03  -3.7109412e+03  -3.5749621e+03  -3.6242427e+03  -3.2037164e+03  -2.8328297e+03  -3.4258663e+03  -3.8954873e+03  -3.8486717e+03  -3.7724367e+03  -3.2018232e+03  -2.7412276e+03  -2.9450200e+03  -3.7383393e+03  -4.4747154e+03  -4.5085082e+03  -4.3897659e+03  -4.2760230e+03  -4.1192633e+03  -4.0397460e+03  -4.0962487e+03  -4.1722389e+03  -4.2055028e+03  -4.1572591e+03  -4.2682535e+03  -4.4410077e+03  -4.4957685e+03  -4.5300177e+03  -4.5000068e+03  -4.4332606e+03  -4.4067595e+03  -4.4062465e+03  -4.4144927e+03  -4.4390002e+03  -4.4605033e+03  -4.5037544e+03  -4.5747536e+03  -4.6345040e+03  -4.6872441e+03  -4.6844969e+03  -4.5802599e+03  -4.5115028e+03  -4.4759937e+03  -4.4519973e+03  -4.4987535e+03  -4.5007479e+03  -4.3934942e+03  -4.3322473e+03  -4.3497466e+03  -4.3899973e+03  -4.3637481e+03  -4.4575015e+03  -4.6719909e+03  -4.6737384e+03  -4.6164904e+03  -4.5522436e+03  -4.3655016e+03  -3.9509651e+03  -3.5604484e+03  -3.6952429e+03  -3.8780282e+03  -3.7455375e+03  -3.6857783e+03  -3.5617224e+03  -3.5562090e+03  -3.7712453e+03  -3.9142447e+03  -3.9949867e+03  -4.0397390e+03  -4.1064703e+03  -4.1552055e+03  -4.1327254e+03  -4.1409955e+03  -4.1925018e+03  -4.2799911e+03  -4.5919908e+03  -5.2005028e+03  -6.1149867e+03  -7.0122614e+03  -6.3457884e+03  -4.3700491e+03  -2.9602907e+03  -1.8807610e+03  -4.4850710e+02   5.9472415e+02   1.0029546e+03   1.1689551e+03   9.8996345e+02   9.9774995e+02   1.2959983e+03   1.6667279e+03   2.2412757e+03   2.5412945e+03   2.7017531e+03   3.0234958e+03   2.9594643e+03   2.9179337e+03   2.8679429e+03   3.0766771e+03   3.8586700e+03   4.2924882e+03   4.5260172e+03   4.6247233e+03   4.1969969e+03   3.9497718e+03   4.0802736e+03   4.1879967e+03   4.1534650e+03   3.9839597e+03   3.7732007e+03   3.6941930e+03   3.7812017e+03   3.9622546e+03   3.1707588e+03   2.1337769e+03   1.7510197e+03   1.2087527e+03   8.0852559e+02   5.0000602e+02   5.2548065e+02   6.5171834e+02
-3.7174895e+03  -3.6689936e+03  -3.6399881e+03  -3.6837394e+03  -3.4780137e+03  -3.4180398e+03  -3.3837298e+03  -3.4134257e+03  -3.5067107e+03  -3.4782328e+03  -3.6302398e+03  -3.7387463e+03  -3.8007607e+03  -3.7790186e+03  -3.8255052e+03  -3.8312488e+03  -3.8452491e+03  -3.9357434e+03  -3.7104956e+03  -3.6747451e+03  -3.8574926e+03  -3.8522436e+03  -3.8497582e+03  -3.8400144e+03  -3.9097527e+03  -3.9030133e+03  -3.9505107e+03  -3.8602365e+03  -3.2815049e+03  -3.3620018e+03  -3.8634775e+03  -3.9002456e+03  -3.8572771e+03  -3.9015216e+03  -3.9050044e+03  -3.8305251e+03  -3.6026949e+03  -3.5729158e+03  -3.8012393e+03  -3.8307528e+03  -3.8505033e+03  -3.9212472e+03  -3.9537466e+03  -3.8989826e+03  -3.9292341e+03  -3.9305077e+03  -3.9127529e+03  -3.9569826e+03  -3.9859926e+03  -3.7550531e+03  -3.3243955e+03  -3.2496664e+03  -3.2001299e+03  -3.2778134e+03  -3.2351869e+03  -3.2686787e+03  -3.7984783e+03  -4.0537443e+03  -3.9852652e+03  -3.7862191e+03  -3.6522432e+03  -3.3336374e+03  -2.9283112e+03  -2.1981271e+03  -2.3854186e+03  -3.7384738e+03  -4.0199923e+03  -3.5165509e+03  -3.5490236e+03  -3.6044470e+03  -3.1613484e+03  -3.3099079e+03  -3.8122808e+03  -4.1442649e+03  -3.8735419e+03  -3.7952997e+03  -4.1519689e+03  -4.2454501e+03  -4.4864999e+03  -4.5190252e+03  -4.3527755e+03  -4.1875278e+03  -4.1165114e+03  -4.0769958e+03  -4.0674980e+03  -4.1332433e+03  -4.2010050e+03  -4.2009982e+03  -4.1684884e+03  -4.2887420e+03  -4.3910030e+03  -4.3632600e+03  -4.3942615e+03  -4.4150116e+03  -4.3657540e+03  -4.3787465e+03  -4.4252494e+03  -4.4355028e+03  -4.4302517e+03  -4.4330026e+03  -4.4919982e+03  -4.5752463e+03  -4.6302469e+03  -4.6785078e+03  -4.6560093e+03  -4.5577449e+03  -4.5262440e+03  -4.5249958e+03  -4.5429830e+03  -4.5559841e+03  -4.5259966e+03  -4.4934842e+03  -4.4397295e+03  -4.3784972e+03  -4.3712568e+03  -4.3502548e+03  -4.4187569e+03  -4.6037740e+03  -4.5740333e+03  -4.5522736e+03  -4.4567771e+03  -4.2055330e+03  -4.0227697e+03  -3.7630081e+03  -3.6555158e+03  -3.6057806e+03  -3.4802697e+03  -3.4610202e+03  -3.5602781e+03  -3.6962610e+03  -3.7912504e+03  -4.0249814e+03  -4.1744745e+03  -4.1499872e+03  -4.2280036e+03  -4.2650210e+03  -4.2060089e+03  -4.1669989e+03  -4.1755018e+03  -4.2650122e+03  -4.5952586e+03  -5.2027467e+03  -6.1939963e+03  -6.8757680e+03  -5.9855393e+03  -3.9410434e+03  -2.6385287e+03  -1.8882373e+03  -4.8498494e+02   7.8573467e+02   1.2594901e+03   1.3190128e+03   1.1542512e+03   1.0442400e+03   1.4079775e+03   1.8329862e+03   2.2017326e+03   2.6054413e+03   2.9406951e+03   3.1554756e+03   3.2234788e+03   3.2364978e+03   3.2304790e+03   3.7881693e+03   4.5594288e+03   4.3567480e+03   4.0615833e+03   4.3858287e+03   4.2030018e+03   3.8564983e+03   4.0397350e+03   4.2682360e+03   4.3589908e+03   4.1977443e+03   3.9522609e+03   3.8670200e+03   3.8120420e+03   3.8290243e+03   3.0647641e+03   1.8992737e+03   1.4820385e+03   1.1860022e+03   7.3648982e+02   4.5000477e+02   9.4667822e+02   1.2913933e+03
-3.6147830e+03  -3.5532817e+03  -3.7294925e+03  -3.5315439e+03  -3.1925486e+03  -3.2859888e+03  -3.5532333e+03  -3.7475020e+03  -3.6535075e+03  -3.5647484e+03  -3.6627532e+03  -3.7854936e+03  -3.8382311e+03  -3.8087247e+03  -3.8119977e+03  -3.7567675e+03  -3.7585199e+03  -3.9297579e+03  -3.7817389e+03  -3.7284932e+03  -3.8705046e+03  -3.8355102e+03  -3.7977531e+03  -3.7410071e+03  -3.7685282e+03  -3.7775140e+03  -3.8232670e+03  -3.8205223e+03  -3.3997193e+03  -3.4189857e+03  -3.8637727e+03  -3.8917563e+03  -3.7792397e+03  -3.8424912e+03  -3.8187644e+03  -3.6957541e+03  -3.8237573e+03  -3.9082616e+03  -3.7935124e+03  -3.7277697e+03  -3.8052566e+03  -3.8680144e+03  -3.8550250e+03  -3.9502564e+03  -4.0084987e+03  -3.9099967e+03  -3.9277438e+03  -3.9227751e+03  -3.6233366e+03  -3.0558492e+03  -2.7752233e+03  -3.1118623e+03  -3.3900775e+03  -3.6108633e+03  -3.8294338e+03  -3.8914359e+03  -4.0262221e+03  -4.0517562e+03  -3.8562628e+03  -3.5825757e+03  -3.4433025e+03  -3.1831444e+03  -3.3216024e+03  -3.0119462e+03  -2.9437101e+03  -3.9497303e+03  -4.1592273e+03  -3.6449206e+03  -3.2857837e+03  -3.3581072e+03  -3.6095549e+03  -3.7205032e+03  -3.7859747e+03  -4.0212618e+03  -3.9549399e+03  -3.5972432e+03  -3.9393278e+03  -4.3465283e+03  -4.3447811e+03  -4.3520110e+03  -4.2302510e+03  -4.0734968e+03  -4.0282578e+03  -4.0622575e+03  -4.0897471e+03  -4.1652497e+03  -4.1832489e+03  -4.2095000e+03  -4.2197505e+03  -4.2750110e+03  -4.3260111e+03  -4.3259980e+03  -4.3624953e+03  -4.3729975e+03  -4.3489997e+03  -4.3785036e+03  -4.3985064e+03  -4.4007548e+03  -4.4125022e+03  -4.4342471e+03  -4.4830038e+03  -4.5830021e+03  -4.6447499e+03  -4.6310025e+03  -4.6199985e+03  -4.5470075e+03  -4.4920135e+03  -4.5165061e+03  -4.5997547e+03  -4.6517451e+03  -4.6034865e+03  -4.5505035e+03  -4.4875103e+03  -4.3777530e+03  -4.2960096e+03  -4.2692628e+03  -4.3240138e+03  -4.4500094e+03  -4.4339971e+03  -4.4132566e+03  -4.3484963e+03  -4.1674750e+03  -4.0294787e+03  -3.7872365e+03  -3.5382597e+03  -3.4072625e+03  -3.2825234e+03  -3.1707931e+03  -3.3467683e+03  -3.6832418e+03  -3.8792304e+03  -4.0980028e+03  -4.2322630e+03  -4.2817341e+03  -4.2767358e+03  -4.2567306e+03  -4.2447326e+03  -4.2072423e+03  -4.2529812e+03  -4.2869829e+03  -4.5899925e+03  -5.2622403e+03  -6.3194763e+03  -6.7805026e+03  -5.6740284e+03  -3.7557467e+03  -2.5469910e+03  -1.7862851e+03  -3.4979472e+02   1.1594338e+03   1.6704202e+03   1.4297129e+03   1.2524773e+03   1.2197218e+03   1.5432432e+03   1.9947285e+03   2.5014521e+03   3.0452131e+03   3.2092467e+03   3.2767481e+03   3.4929625e+03   3.4194622e+03   3.5562000e+03   4.1632494e+03   4.5245794e+03   4.1952873e+03   3.7352373e+03   3.8677838e+03   4.0927722e+03   3.9239870e+03   4.1792347e+03   4.6574291e+03   4.6811889e+03   4.3477230e+03   4.0477182e+03   3.8774775e+03   3.6344964e+03   4.0576756e+03   3.4648983e+03   1.9087241e+03   1.2575103e+03   1.0337811e+03   7.2426294e+02   4.8123837e+02   1.0885414e+03   1.4943133e+03
